ply
format ascii 1.0
comment This is our Processing ply file
element vertex 1018
property float x
property float y
property float z
property uchar red
property uchar green
property uchar blue
end_header
-0.030339535 -0.04754644 -0.02395787 10 10 1
-0.028819624 -0.04754644 -0.024847155 10 8 1
-0.010227234 -0.048718687 -0.0067606336 9 5 1
-0.0071638376 -0.04885936 -0.0050772275 12 6 1
0.0041063773 -0.04946893 0.003390348 7 4 5
0.004163804 -0.04932826 -1.1902166E-4 6 4 9
0.0037026776 -0.0491407 -0.004483581 6 4 5
0.0037406178 -0.04900003 -0.007981549 4 3 1
0.0037893967 -0.048718687 -0.01496163 6 2 1
0.0053468393 -0.048718687 -0.015872875 6 2 1
0.005353243 -0.048578016 -0.01935239 8 2 1
0.006906189 -0.048578016 -0.020261005 8 3 1
-0.033379413 -0.049307443 -0.022179265 39 26 1
-0.033334006 -0.049161565 -0.0256816 9 21 1
-0.03181857 -0.049161565 -0.026568271 6 17 1
-0.028819624 -0.049307443 -0.024847155 3 10 1
-0.0071638376 -0.050668992 -0.0050772275 7 4 1
-5.6689547E-4 -0.051155254 0.0026488653 7 4 1
0.0041063773 -0.051301137 0.003390348 4 4 1
0.005687804 -0.051301137 0.0024650702 6 5 5
0.0037026776 -0.05096075 -0.004483581 8 4 1
0.0037406178 -0.05081487 -0.007981549 5 4 1
0.005306995 -0.05081487 -0.008898022 3 4 1
0.0037893967 -0.05052311 -0.01496163 3 4 1
0.0038003558 -0.050377227 -0.018443814 4 3 1
0.005353243 -0.050377227 -0.01935239 6 2 1
0.006906189 -0.050377227 -0.020261005 8 3 1
-0.033379413 -0.051068395 -0.022179265 10 44 1
-0.031859472 -0.051068395 -0.023068568 10 8 1
-0.030339535 -0.051068395 -0.02395787 5 9 1
-0.028819624 -0.051068395 -0.024847155 5 11 1
-5.6689547E-4 -0.0529822 0.0026488653 5 1 1
0.0010100043 -0.0529822 0.0017262362 2 2 1
0.0041063773 -0.05313329 0.003390348 2 4 1
0.004163804 -0.0529822 -1.1902166E-4 6 4 1
0.002174181 -0.052629657 -0.0070650424 6 5 1
0.002207624 -0.05247857 -0.01056038 2 4 1
0.0037695037 -0.05247857 -0.01147422 2 4 1
0.00224741 -0.052176386 -0.017535198 3 3 1
0.0038003558 -0.052176386 -0.018443814 3 2 1
0.0038022613 -0.0520253 -0.021920696 7 2 1
0.005350711 -0.0520253 -0.022826679 7 2 1
-0.033379413 -0.0528294 -0.022179265 25 11 1
-0.031859472 -0.0528294 -0.023068568 12 10 1
-0.030339535 -0.0528294 -0.02395787 10 10 1
-0.028819624 -0.0528294 -0.024847155 8 10 1
-5.6689547E-4 -0.0548092 0.0026488653 4 3 1
0.0010100043 -0.0548092 0.0017262362 2 4 1
0.0041063773 -0.0549655 0.003390348 1 5 1
0.004163804 -0.0548092 -1.1902166E-4 2 7 1
0.002174181 -0.0544445 -0.0070650424 4 5 1
0.0037406178 -0.0544445 -0.007981549 3 4 1
0.0037695037 -0.0542882 -0.01147422 2 3 1
7.054224E-4 -0.0538193 -0.020108767 2 3 1
0.002253871 -0.0538193 -0.02101475 3 3 1
0.0038022613 -0.0538193 -0.021920696 5 4 1
0.005350711 -0.0538193 -0.022826679 7 4 1
-0.034849454 -0.054428894 -0.024794929 20 15 1
-0.033334006 -0.054428894 -0.0256816 20 12 1
-0.03181857 -0.054428894 -0.026568271 11 11 1
-0.030303154 -0.054428894 -0.027454926 11 10 1
-0.00866985 -0.05593632 -0.0076718437 12 3 1
-0.0025809084 -0.056420848 -8.071154E-4 12 3 1
-0.0010100043 -0.056420848 -0.0017262362 10 5 1
5.608697E-4 -0.056420848 -0.0026453396 10 7 1
0.004163804 -0.056636196 -1.1902166E-4 7 6 1
0.002174181 -0.056259338 -0.0070650424 7 5 1
0.002207624 -0.056097828 -0.01056038 3 4 1
0.0022320133 -0.05593632 -0.014050419 3 3 1
0.00224741 -0.05577481 -0.017535198 3 4 1
0.002253871 -0.0556133 -0.02101475 3 5 1
0.0038022613 -0.0556133 -0.021920696 9 5 1
0.005350711 -0.0556133 -0.022826679 9 5 1
-0.034849454 -0.056184635 -0.024794929 42 16 1
-0.031859472 -0.056351356 -0.023068568 28 13 1
-0.030339535 -0.056351356 -0.02395787 21 11 1
-0.027336098 -0.056518074 -0.022239381 14 7 1
-0.025811661 -0.056518074 -0.023131315 12 3 1
-0.00866985 -0.05774069 -0.0076718437 18 2 2
-0.0025809084 -0.05824085 -8.071154E-4 20 3 2
-0.0010100043 -0.05824085 -0.0017262362 19 4 1
5.608697E-4 -0.05824085 -0.0026453396 19 3 1
0.004163804 -0.05846314 -1.1902166E-4 14 2 1
0.002174181 -0.058074128 -0.0070650424 10 2 1
0.002207624 -0.05790741 -0.01056038 7 2 1
0.0022320133 -0.05774069 -0.014050419 4 2 1
0.00224741 -0.057573967 -0.017535198 4 2 1
0.0038003558 -0.057573967 -0.018443814 4 2 1
0.005353243 -0.057573967 -0.01935239 8 2 1
0.005350711 -0.05740725 -0.022826679 12 1 3
-0.034849454 -0.05794043 -0.024794929 25 15 1
-0.031859472 -0.058112357 -0.023068568 25 12 1
-0.030339535 -0.058112357 -0.02395787 23 11 1
-0.028819624 -0.058112357 -0.024847155 23 11 1
-0.025811661 -0.05828429 -0.023131315 25 6 1
-0.00866985 -0.059545107 -0.0076718437 37 11 3
-0.0025809084 -0.060060896 -8.071154E-4 37 17 2
-0.0010100043 -0.060060896 -0.0017262362 38 17 1
0.002586874 -0.06029014 8.0362486E-4 38 18 1
0.0021318034 -0.060060896 -0.003564478 27 13 1
6.456838E-4 -0.05971704 -0.009646503 27 9 1
6.746297E-4 -0.059545107 -0.01313921 20 6 1
6.9452287E-4 -0.05937318 -0.016626619 20 3 1
7.054224E-4 -0.059201248 -0.020108767 23 4 1
0.002253871 -0.059201248 -0.02101475 23 5 1
0.0038022613 -0.059201248 -0.021920696 28 5 1
0.005350711 -0.059201248 -0.022826679 28 6 3
-0.034849454 -0.05969617 -0.024794929 26 10 1
-0.031859472 -0.059873313 -0.023068568 23 11 1
-0.030339535 -0.059873313 -0.02395787 28 13 1
-0.028819624 -0.059873313 -0.024847155 33 8 1
-0.0025809084 -0.061880898 -8.071154E-4 54 51 13
-0.0010100043 -0.061880898 -0.0017262362 56 66 1
0.002586874 -0.062117085 8.0362486E-4 58 48 1
0.0021318034 -0.061880898 -0.003564478 51 30 1
-8.828135E-4 -0.06134948 -0.012227965 44 15 1
-0.002391358 -0.0609952 -0.01829687 40 1 1
-8.42968E-4 -0.0609952 -0.019202817 36 12 23
7.054224E-4 -0.0609952 -0.020108767 39 24 23
0.002253871 -0.0609952 -0.02101475 42 18 23
0.0038022613 -0.0609952 -0.021920696 43 12 1
0.0037952329 -0.060818058 -0.025392354 44 10 1
-0.034849454 -0.061451964 -0.024794929 33 12 1
-0.033334006 -0.061451964 -0.0256816 33 10 1
-0.030339535 -0.061634317 -0.02395787 27 11 1
-0.028819624 -0.061634317 -0.024847155 27 12 1
-0.00241131 -0.06297155 -0.014809425 35 36 1
-8.583641E-4 -0.06297155 -0.01571804 29 38 1
-8.42968E-4 -0.0627892 -0.019202817 29 40 23
0.0037952329 -0.06260685 -0.025392354 36 12 1
-0.034849454 -0.06320771 -0.024794929 48 1 1
-0.033334006 -0.06320771 -0.0256816 44 1 1
-0.028860504 -0.06358283 -0.021347465 33 1 1
-0.027336098 -0.06358283 -0.022239381 22 8 1
-0.00241131 -0.064770706 -0.014809425 26 2 8
-8.583641E-4 -0.064770706 -0.01571804 24 3 8
-0.033379413 -0.06515627 -0.022179265 134 73 1
-0.033334006 -0.064963505 -0.0256816 134 66 1
-0.028860504 -0.06534904 -0.021347465 113 74 1
-0.027336098 -0.06534904 -0.022239381 113 83 1
-0.033379413 -0.066917226 -0.022179265 228 203 85
-0.011140922 0.108889 0.015173521 138 1 1
-0.010493981 0.108889 0.013477925 139 2 2
-0.011140922 0.10707418 0.015173521 141 1 1
-0.010493981 0.10707418 0.013477925 141 1 2
-0.012635091 0.10676679 0.010673955 136 2 3
-0.011990019 0.10676679 0.008983258 136 4 3
-0.011344934 0.10676679 0.007292529 129 4 4
-0.010699848 0.10676679 0.005601799 129 4 9
-0.013925263 0.10495719 0.014055413 144 2 2
-0.013280178 0.10495719 0.012364685 143 1 3
-0.012635091 0.10495719 0.010673955 140 1 3
-0.01477993 0.104655005 0.007879753 138 1 2
-0.014136703 0.104655005 0.006193891 137 1 2
-0.013493474 0.104655005 0.0045080306 136 1 1
-0.010054762 0.10495719 0.00391107 134 2 8
-0.009409677 0.10495719 0.0022203408 133 1 7
-0.008764603 0.10495719 5.2964356E-4 127 1 6
-0.008119518 0.10495719 -0.0011610858 122 1 6
-0.022423297 0.10334556 -0.008555446 112 1 62
-0.02178813 0.10334556 -0.010220182 102 6 1
-0.013925263 0.10314758 0.014055413 146 4 4
-0.013280178 0.10314758 0.012364685 146 3 3
-0.015423147 0.102850616 0.0095655825 142 2 3
-0.01477993 0.102850616 0.007879753 142 1 2
-0.014136703 0.102850616 0.006193891 138 1 1
-0.013493474 0.102850616 0.0045080306 138 1 1
-0.009409677 0.10314758 0.0022203408 136 1 7
-0.008764603 0.10314758 5.2964356E-4 126 1 12
-0.010920574 0.102850616 -0.0022353844 126 1 6
-0.010277346 0.102850616 -0.003921246 112 1 1
-0.00963413 0.102850616 -0.0056070755 112 1 1
-0.011797516 0.10255364 -0.008352665 111 1 1
-0.011156157 0.10255364 -0.010033626 111 1 59
-0.016709602 0.10104622 0.012937307 149 3 12
-0.016066376 0.10104622 0.011251444 149 2 11
-0.015423147 0.10104622 0.0095655825 147 1 2
-0.01477993 0.10104622 0.007879753 146 1 1
-0.014136703 0.10104622 0.006193891 143 1 1
-0.013493474 0.10104622 0.0045080306 141 1 2
-0.009409677 0.101337984 0.0022203408 139 1 37
-0.008764603 0.101337984 5.2964356E-4 134 1 41
-0.007474433 0.101337984 -0.0028518152 126 2 11
-0.008990889 0.10104622 -0.0072929696 117 1 21
-0.008347673 0.10104622 -0.008978799 112 1 21
-0.007704433 0.10104622 -0.010664693 109 1 59
-0.016709602 0.09924182 0.012937307 150 2 21
-0.016066376 0.09924182 0.011251444 150 1 11
-0.015423147 0.09924182 0.0095655825 149 1 1
-0.01477993 0.09924182 0.007879753 149 1 1
-0.01692847 0.09895527 0.005095255 143 1 1
-0.013493474 0.09924182 0.0045080306 143 1 2
-0.008764603 0.09952837 5.2964356E-4 129 1 71
-0.008119518 0.09952837 -0.0011610858 129 1 46
-0.007474433 0.09952837 -0.0028518152 120 1 21
-0.008990889 0.09924182 -0.0072929696 110 1 41
-0.008347673 0.09924182 -0.008978799 110 1 21
-0.007704433 0.09924182 -0.010664693 95 31 1
-0.016709602 0.097437434 0.012937307 149 4 12
-0.018852571 0.09715609 0.010138203 152 4 2
-0.0182112 0.09715609 0.008457211 152 4 1
-0.017569842 0.09715609 0.006776248 152 2 1
-0.013493474 0.097437434 0.0045080306 146 1 2
-0.012207018 0.097437434 0.0011363068 140 1 9
-0.011563802 0.097437434 -5.4952264E-4 134 2 42
-0.008990889 0.097437434 -0.0072929696 113 1 23
-0.008347673 0.097437434 -0.008978799 108 1 3
-0.007704433 0.097437434 -0.010664693 96 1 1
-0.0070612174 0.097437434 -0.012350523 84 42 43
-0.019493943 0.095356904 0.011819199 154 3 4
-0.02163877 0.09508077 0.009024964 154 3 2
-0.020999257 0.09508077 0.007348838 153 2 1
-0.020359753 0.09508077 0.005672744 153 2 1
-0.01692847 0.095356904 0.005095255 145 1 1
-0.012207018 0.09563304 0.0011363068 138 4 9
-0.011563802 0.09563304 -5.4952264E-4 120 2 14
-0.00963413 0.09563304 -0.0056070755 116 1 3
-0.008990889 0.09563304 -0.0072929696 129 1 5
-0.008347673 0.09563304 -0.008978799 129 1 3
-0.007704433 0.09563304 -0.010664693 88 1 1
-0.0070612174 0.09563304 -0.012350523 88 1 43
-0.022278283 0.093286775 0.010701091 154 1 2
-0.02163877 0.093286775 0.009024964 157 3 1
-0.020999257 0.093286775 0.007348838 156 5 1
-0.020359753 0.093286775 0.005672744 155 4 7
-0.01972024 0.093286775 0.003996617 150 3 7
-0.01564573 0.09355769 0.0017332669 141 1 4
-0.012207018 0.09382861 0.0011363068 137 1 18
-0.011563802 0.09382861 -5.4952264E-4 125 1 23
-0.00963413 0.09382861 -0.0056070755 115 58 51
-0.008990889 0.09382861 -0.0072929696 132 80 20
-0.008347673 0.09382861 -0.008978799 150 50 49
-0.0048940913 0.09409954 -0.009614733 121 21 31
0.001375379 0.09464137 -0.009215245 92 38 64
0.0020241665 0.09464137 -0.010915678 117 55 75
-0.022278283 0.091492794 0.010701091 158 4 1
-0.02163877 0.091492794 0.009024964 158 5 1
-0.020999257 0.091492794 0.007348838 155 7 1
-0.020359753 0.091492794 0.005672744 155 9 7
-0.01972024 0.091492794 0.003996617 140 5 14
-0.009409677 0.092289925 0.0022203408 152 1 18
-0.008764603 0.092289925 5.2964356E-4 143 32 33
-0.007474433 0.092289925 -0.0028518152 132 74 66
-0.006184262 0.092289925 -0.006233274 147 94 36
-0.002730705 0.09255564 -0.0068691433 147 104 49
-0.00208375 0.09255564 -0.008564773 110 64 62
0.001375379 0.09282135 -0.009215245 110 24 64
0.0020241665 0.09282135 -0.010915678 149 78 66
0.0026729787 0.09282135 -0.012616174 149 133 86
-0.022278283 0.08969882 0.010701091 159 3 12
-0.02163877 0.08969882 0.009024964 160 6 20
-0.02378731 0.08943833 0.0062404657 157 10 9
-0.020359753 0.08969882 0.005672744 155 5 11
-0.01972024 0.08969882 0.003996617 145 1 10
-0.013493474 0.090219826 0.0045080306 135 31 10
-0.009409677 0.09048032 0.0022203408 168 72 17
-0.008764603 0.09048032 5.2964356E-4 170 83 26
-0.008119518 0.09048032 -0.0011610858 173 90 33
-0.007474433 0.09048032 -0.0028518152 161 98 56
-0.0033776355 0.09074082 -0.005173579 147 97 46
-0.002730705 0.09074082 -0.0068691433 144 89 59
7.2659133E-4 0.09100132 -0.0075148134 136 81 62
0.001375379 0.09100132 -0.009215245 128 72 95
0.0020241665 0.09100132 -0.010915678 142 63 96
0.0026729787 0.09100132 -0.012616174 156 98 110
-0.025062623 0.08764956 0.009582983 159 8 24
-0.02163877 0.08790485 0.009024964 159 15 20
-0.02378731 0.08764956 0.0062404657 152 8 17
-0.020359753 0.08790485 0.005672744 152 1 11
-0.01972024 0.08790485 0.003996617 176 40 6
-0.013493474 0.08841543 0.0045080306 176 80 10
-0.009409677 0.088670716 0.0022203408 193 142 17
-0.008764603 0.088670716 5.2964356E-4 181 135 20
-0.007474433 0.088670716 -0.0028518152 128 109 47
7.777917E-5 0.0891813 -0.0058143158 126 56 59
7.2659133E-4 0.0891813 -0.0075148134 146 49 63
0.001375379 0.0891813 -0.009215245 146 42 95
0.0020241665 0.0891813 -0.010915678 176 87 127
0.0026729787 0.0891813 -0.012616174 176 133 110
0.0033217662 0.0891813 -0.014316607 168 131 94
-0.022278283 0.08611087 0.010701091 159 1 13
-0.02163877 0.08611087 0.009024964 158 1 27
-0.020999257 0.08611087 0.007348838 154 1 35
-0.020359753 0.08611087 0.005672744 150 59 49
-0.01972024 0.08611087 0.003996617 184 117 25
-0.013493474 0.08661103 0.0045080306 218 128 63
-0.009409677 0.08686111 0.0022203408 218 129 70
-0.008764603 0.08686111 5.2964356E-4 203 119 39
-0.007474433 0.08686111 -0.0028518152 148 73 44
-0.0040245904 0.08711119 -0.0034779492 107 62 21
-0.002730705 0.08711119 -0.0068691433 109 26 1
7.2659133E-4 0.087361276 -0.0075148134 136 1 32
0.0020241665 0.087361276 -0.010915678 180 143 137
0.0026729787 0.087361276 -0.012616174 197 131 100
0.0033217662 0.087361276 -0.014316607 183 120 73
-0.022278283 0.0843169 0.010701091 158 1 2
-0.02163877 0.0843169 0.009024964 158 1 27
-0.020999257 0.0843169 0.007348838 188 72 53
-0.020359753 0.0843169 0.005672744 188 144 49
-0.01972024 0.0843169 0.003996617 219 152 45
-0.013493474 0.08480664 0.0045080306 219 161 63
-0.009409677 0.08505151 0.0022203408 216 129 70
-0.008764603 0.08505151 5.2964356E-4 188 116 58
-0.007474433 0.08505151 -0.0028518152 133 87 41
-0.0012198207 0.08554124 -0.0024133862 133 71 21
-0.0033776355 0.08529638 -0.005173579 134 63 1
-0.002730705 0.08529638 -0.0068691433 134 55 1
-0.0014368196 0.08529638 -0.010260338 194 153 74
0.0020241665 0.08554124 -0.010915678 215 153 147
-1.4293432E-4 0.08529638 -0.013651533 215 154 100
5.039959E-4 0.08529638 -0.015347097 170 137 53
-0.022278283 0.08252293 0.010701091 157 3 77
-0.02163877 0.08252293 0.009024964 159 74 127
-0.020999257 0.08252293 0.007348838 193 145 77
-0.020359753 0.08252293 0.005672744 227 155 101
-0.01692847 0.082762584 0.005095255 224 165 73
-0.013493474 0.08300224 0.0045080306 221 155 112
-0.012207018 0.08300224 0.0011363068 214 126 98
-0.008764603 0.0832419 5.2964356E-4 200 106 65
-0.008119518 0.0832419 -0.0011610858 187 83 37
-0.007474433 0.0832419 -0.0028518152 173 60 21
-0.0040245904 0.08348156 -0.0034779492 159 68 1
-0.006184262 0.0832419 -0.006233274 159 77 1
-0.0036039448 0.0832419 -0.012996127 229 146 134
-0.002958847 0.0832419 -0.014686889 234 142 84
-0.007949315 0.082762584 -0.018438565 202 138 50
-0.0073079313 0.082762584 -0.02011959 171 131 71
-0.022278283 0.08072895 0.010701091 192 115 153
-0.02163877 0.08072895 0.009024964 192 167 127
-0.020999257 0.08072895 0.007348838 221 159 101
-0.020359753 0.08072895 0.005672744 221 152 101
-0.01692847 0.0809634 0.005095255 218 152 102
-0.012850246 0.08119784 0.0028221684 223 147 123
-0.012207018 0.08119784 0.0011363068 223 142 98
-0.011563802 0.08119784 -5.4952264E-4 207 125 73
-0.007474433 0.0814323 -0.0028518152 187 111 1
-0.00682936 0.0814323 -0.0045425124 187 114 1
-0.008347673 0.08119784 -0.008978799 169 111 70
-0.007704433 0.08119784 -0.010664693 217 143 139
-0.0070612174 0.08119784 -0.012350523 217 176 130
-0.0064180014 0.08119784 -0.014036352 201 176 121
-0.0057747606 0.08119784 -0.015722245 201 177 84
-0.007949315 0.0809634 -0.018438565 160 144 47
-0.0073079313 0.0809634 -0.02011959 160 112 71
-0.022278283 0.078934975 0.010701091 214 186 168
-0.02163877 0.078934975 0.009024964 225 179 147
-0.020999257 0.078934975 0.007348838 220 172 106
-0.020359753 0.078934975 0.005672744 215 164 116
-0.01692847 0.079164214 0.005095255 215 156 111
-0.012850246 0.079393454 0.0028221684 224 153 124
-0.012207018 0.079393454 0.0011363068 233 152 132
-0.011563802 0.079393454 -5.4952264E-4 230 152 106
-0.010920574 0.079393454 -0.0022353844 228 141 121
-0.010277346 0.079393454 -0.003921246 222 130 52
-0.00963413 0.079393454 -0.0056070755 216 115 71
-0.011156157 0.079164214 -0.010033626 180 121 69
-0.010514773 0.079164214 -0.011714653 194 142 119
-0.0064180014 0.079393454 -0.014036352 189 154 111
-0.0057747606 0.079393454 -0.015722245 169 130 52
-0.007949315 0.079164214 -0.018438565 159 106 25
-0.0073079313 0.079164214 -0.02011959 150 117 55
-0.022278283 0.077141 0.010701091 221 188 184
-0.02163877 0.077141 0.009024964 221 183 147
-0.020999257 0.077141 0.007348838 219 173 111
-0.020359753 0.077141 0.005672744 219 163 116
-0.01972024 0.077141 0.003996617 219 160 121
-0.0162871 0.077365026 0.003414261 219 158 123
-0.01564573 0.077365026 0.0017332669 228 157 125
-0.015004358 0.077365026 5.2272797E-5 228 157 132
-0.013721628 0.077365026 -0.003309683 225 142 121
-0.011797516 0.077365026 -0.008352665 199 135 39
-0.010514773 0.077365026 -0.011714653 203 139 99
-0.009873415 0.077365026 -0.013395615 203 143 100
-0.009232055 0.077365026 -0.015076576 163 114 101
-0.008590673 0.077365026 -0.016757602 163 85 52
-0.007949315 0.077365026 -0.018438565 163 97 3
-0.0073079313 0.077365026 -0.02011959 163 109 55
-0.019493943 0.075565845 0.011819199 219 184 172
-0.02163877 0.07534702 0.009024964 218 187 159
-0.020999257 0.07534702 0.007348838 220 190 134
-0.020359753 0.07534702 0.005672744 223 184 150
-0.01972024 0.07534702 0.003996617 223 179 131
-0.018441211 0.07534702 6.443653E-4 224 168 125
-0.017801698 0.07534702 -0.0010317607 224 167 130
-0.019961394 0.075128205 -0.0037870214 223 167 136
-0.01932374 0.075128205 -0.0054582795 222 159 133
-0.015243668 0.07534702 -0.0077362014 218 143 138
-0.014604143 0.07534702 -0.009412359 218 135 91
-0.012685614 0.07534702 -0.014440706 198 150 119
-0.009232055 0.075565845 -0.015076576 178 132 122
-0.008590673 0.075565845 -0.016757602 158 126 117
-0.007949315 0.075565845 -0.018438565 167 121 47
-0.0073079313 0.075565845 -0.02011959 177 127 100
-0.019493943 0.07376666 0.011819199 228 179 161
-0.02163877 0.07355305 0.009024964 228 189 159
-0.020999257 0.07355305 0.007348838 226 188 158
-0.020359753 0.07355305 0.005672744 226 187 150
-0.01972024 0.07355305 0.003996617 225 179 142
-0.018441211 0.07355305 6.443653E-4 223 170 126
-0.02059904 0.07333944 -0.0021157947 223 169 130
-0.019961394 0.07333944 -0.0037870214 223 171 134
-0.01932374 0.07333944 -0.0054582795 223 173 133
-0.018686082 0.07333944 -0.007129538 222 176 133
-0.01741077 0.07333944 -0.010472055 214 186 144
-0.016773127 0.07333944 -0.012143282 214 193 120
-0.012685614 0.07355305 -0.014440706 197 155 119
-0.008590673 0.07376666 -0.016757602 148 110 117
-0.0051315445 0.07398027 -0.017408075 185 119 92
-0.0044883043 0.07398027 -0.01909397 185 128 100
-0.019493943 0.071967475 0.011819199 226 189 157
-0.02163877 0.071759075 0.009024964 239 189 167
-0.02378731 0.071550675 0.0062404657 234 190 169
-0.023149665 0.071550675 0.004569239 230 185 169
-0.02251201 0.071550675 0.002897981 228 181 150
-0.021874353 0.071550675 0.0012267223 227 182 164
-0.021236695 0.071550675 -4.445362E-4 225 184 148
-0.02059904 0.071550675 -0.0021157947 223 184 157
-0.019961394 0.071550675 -0.0037870214 223 185 139
-0.018686082 0.071550675 -0.007129538 225 190 130
-0.01741077 0.071550675 -0.010472055 218 189 145
-0.016773127 0.071550675 -0.012143282 211 180 141
-0.015497812 0.071550675 -0.015485798 196 136 111
-0.0051315445 0.072175875 -0.017408075 165 118 109
0.0011509514 0.072592676 -0.017042726 193 126 116
-0.022278283 0.069965094 0.010701091 235 191 154
-0.02163877 0.069965094 0.009024964 235 192 167
-0.02378731 0.06976191 0.0062404657 231 192 180
-0.023149665 0.06976191 0.004569239 231 192 169
-0.02251201 0.06976191 0.002897981 230 185 159
-0.021874353 0.06976191 0.0012267223 230 179 164
-0.02059904 0.06976191 -0.0021157947 227 187 157
-0.019961394 0.06976191 -0.0037870214 225 189 144
-0.01804844 0.06976191 -0.008800764 224 182 137
-0.021152938 0.06949099 -0.011884982 206 163 147
-0.020517768 0.06949099 -0.013549718 206 145 141
-0.019882578 0.06949099 -0.015214518 185 144 136
-0.015497812 0.06976191 -0.015485798 185 143 111
-0.014860168 0.06976191 -0.017157024 143 114 86
-0.008590673 0.07016829 -0.016757602 143 86 106
-0.002313774 0.07057467 -0.016377587 178 120 126
0.0011509514 0.07077786 -0.017042726 178 154 116
-0.022278283 0.06817113 0.010701091 229 202 151
-0.02163877 0.06817113 0.009024964 232 199 155
-0.02378731 0.067973144 0.0062404657 232 196 171
-0.023149665 0.067973144 0.004569239 232 195 159
-0.02251201 0.067973144 0.002897981 232 195 158
-0.021874353 0.067973144 0.0012267223 233 189 154
-0.02059904 0.067973144 -0.0021157947 232 185 152
-0.019961394 0.067973144 -0.0037870214 229 186 148
-0.01804844 0.067973144 -0.008800764 222 175 134
-0.021152938 0.06770917 -0.011884982 211 163 135
-0.020517768 0.06770917 -0.013549718 201 149 125
-0.019882578 0.06770917 -0.015214518 187 136 131
-0.015497812 0.067973144 -0.015485798 174 121 103
-0.012046112 0.06817113 -0.0161168 161 107 83
-0.0051315445 0.06856708 -0.017408075 156 139 114
-0.0044883043 0.06856708 -0.01909397 164 132 107
-0.022278283 0.06637712 0.010701091 225 190 149
-0.02163877 0.06637712 0.009024964 225 201 155
-0.02378731 0.06618436 0.0062404657 235 198 162
-0.023149665 0.06618436 0.004569239 235 195 159
-0.02251201 0.06618436 0.002897981 234 197 157
-0.021874353 0.06618436 0.0012267223 234 199 154
-0.02059904 0.06618436 -0.0021157947 235 185 152
-0.019961394 0.06618436 -0.0037870214 229 185 153
-0.01932374 0.06618436 -0.0054582795 229 186 148
-0.01804844 0.06618436 -0.008800764 225 172 134
-0.021152938 0.06592733 -0.011884982 203 169 124
-0.020517768 0.06592733 -0.013549718 203 167 125
-0.015497812 0.06618436 -0.015485798 191 152 103
-0.012046112 0.06637712 -0.0161168 169 140 80
-0.007949315 0.066569895 -0.018438565 159 129 103
-0.0044883043 0.06676266 -0.01909397 159 130 107
-0.022278283 0.064583145 0.010701091 195 164 153
-0.02163877 0.064583145 0.009024964 218 174 178
-0.02378731 0.06439559 0.0062404657 228 185 181
-0.023149665 0.06439559 0.004569239 238 193 188
-0.02251201 0.06439559 0.002897981 237 201 167
-0.025599185 0.064145505 -2.3163701E-4 236 201 168
-0.02059904 0.06439559 -0.0021157947 239 193 162
-0.019961394 0.06439559 -0.0037870214 235 184 159
-0.01932374 0.06439559 -0.0054582795 231 186 157
-0.01804844 0.06439559 -0.008800764 228 181 150
-0.021152938 0.064145505 -0.011884982 216 173 137
-0.020517768 0.064145505 -0.013549718 205 168 146
-0.019882578 0.064145505 -0.015214518 207 164 134
-0.015497812 0.06439559 -0.015485798 209 160 148
-0.012046112 0.064583145 -0.0161168 199 156 117
-0.0051315445 0.06495827 -0.017408075 172 137 96
-0.0044883043 0.06495827 -0.01909397 155 115 79
-0.025062623 0.06260683 0.009582983 187 78 157
-0.024424965 0.06260683 0.007911724 187 145 178
-0.02378731 0.06260683 0.0062404657 226 177 200
-0.023149665 0.06260683 0.004569239 226 209 188
-0.026234366 0.062363688 0.0014331312 231 204 177
-0.025599185 0.062363688 -2.3163701E-4 231 200 168
-0.024964007 0.062363688 -0.0018964052 245 193 160
-0.02059904 0.06260683 -0.0021157947 245 187 162
-0.019961394 0.06260683 -0.0037870214 230 188 165
-0.01932374 0.06260683 -0.0054582795 230 189 157
-0.01804844 0.06260683 -0.008800764 227 188 150
-0.021152938 0.062363688 -0.011884982 216 180 151
-0.020517768 0.062363688 -0.013549718 216 172 146
-0.019882578 0.062363688 -0.015214518 207 168 142
-0.019247409 0.062363688 -0.016879253 207 164 148
-0.007949315 0.062971525 -0.018438565 168 145 90
-0.0044883043 0.06315387 -0.01909397 168 135 79
-0.025062623 0.060818058 0.009582983 148 29 79
-0.024424965 0.060818058 0.007911724 156 86 66
-0.02378731 0.060818058 0.0062404657 185 143 165
-0.023149665 0.060818058 0.004569239 215 170 157
-0.026234366 0.06058187 0.0014331312 220 197 180
-0.025599185 0.06058187 -2.3163701E-4 226 208 193
-0.024964007 0.06058187 -0.0018964052 238 219 182
-0.024328826 0.06058187 -0.0035611733 251 210 175
-0.019961394 0.060818058 -0.0037870214 240 201 156
-0.01932374 0.060818058 -0.0054582795 230 194 155
-0.022423297 0.06058187 -0.008555446 228 188 156
-0.01804844 0.060818058 -0.008800764 227 185 156
-0.021152938 0.06058187 -0.011884982 227 183 149
-0.020517768 0.06058187 -0.013549718 228 179 156
-0.015497812 0.060818058 -0.015485798 205 169 146
-0.0073079313 0.06117234 -0.02011959 181 132 99
-0.025062623 0.059029292 0.009582983 148 1 1
-0.024424965 0.059029292 0.007911724 148 1 66
-0.027504714 0.058800053 0.004762635 177 70 131
-0.026869547 0.058800053 0.0030978995 177 140 157
-0.026234366 0.058800053 0.0014331312 211 166 183
-0.025599185 0.058800053 -2.3163701E-4 211 192 193
-0.024964007 0.058800053 -0.0018964052 248 203 204
-0.024328826 0.058800053 -0.0035611733 248 214 175
-0.023693658 0.058800053 -0.0052259094 238 205 147
-0.022423297 0.058800053 -0.008555446 231 192 164
-0.021152938 0.058800053 -0.011884982 231 187 148
-0.020517768 0.058800053 -0.013549718 231 185 156
-0.019882578 0.058800053 -0.015214518 206 182 165
-0.015497812 0.059029292 -0.015485798 206 179 146
-0.0114065865 0.059201226 -0.017792957 208 169 126
-0.028775074 0.057018235 0.0080921715 145 1 8
-0.028139895 0.057018235 0.0064274035 141 14 8
-0.027504714 0.057018235 0.004762635 140 28 66
-0.026869547 0.057018235 0.0030978995 140 94 72
-0.026234366 0.057018235 0.0014331312 168 160 163
-0.025599185 0.057018235 -2.3163701E-4 197 178 141
-0.024964007 0.057018235 -0.0018964052 221 197 172
-0.024328826 0.057018235 -0.0035611733 246 218 172
-0.023693658 0.057018235 -0.0052259094 246 240 176
-0.022423297 0.057018235 -0.008555446 241 189 173
-0.023959566 0.056851517 -0.012944676 235 200 159
-0.023326255 0.056851517 -0.014604545 234 191 166
-0.02269292 0.056851517 -0.016264476 220 182 163
-0.014860168 0.057240527 -0.017157024 207 173 143
-0.0142225 0.057240527 -0.018828316 207 166 135
-0.031559415 0.055074904 0.006974064 142 4 15
-0.033712287 0.054913398 0.004200923 142 5 8
-0.033080827 0.054913398 0.0025458909 144 26 1
-0.029659458 0.055074904 0.0019943942 144 48 72
-0.029026136 0.055074904 3.344946E-4 170 73 143
-0.028392814 0.055074904 -0.001325406 170 99 141
-0.02775949 0.055074904 -0.0029853063 206 143 140
-0.027126167 0.055074904 -0.0046452065 206 188 172
-0.023693658 0.055236414 -0.0052259094 209 192 205
-0.023058478 0.055236414 -0.0068906774 209 196 194
-0.022423297 0.055236414 -0.008555446 208 189 183
-0.023959566 0.055074904 -0.012944676 218 186 171
-0.023326255 0.055074904 -0.014604545 218 190 166
-0.02269292 0.055074904 -0.016264476 205 181 162
-0.022059608 0.055074904 -0.017924346 205 173 160
-0.018612241 0.055236414 -0.01854399 202 173 159
-0.01797705 0.055236414 -0.020208789 202 174 135
-0.013584856 0.055451762 -0.020499542 185 163 112
-0.031559415 0.0532983 0.006974064 148 2 20
-0.033712287 0.053142 0.004200923 144 1 31
-0.033080827 0.053142 0.0025458909 146 1 19
-0.029659458 0.0532983 0.0019943942 149 1 33
-0.029026136 0.0532983 3.344946E-4 146 1 86
-0.028392814 0.0532983 -0.001325406 143 35 46
-0.02775949 0.0532983 -0.0029853063 154 69 101
-0.029923508 0.053142 -0.005729241 166 75 69
-0.029292054 0.053142 -0.007384242 169 82 140
-0.025226211 0.0532983 -0.009624876 176 114 149
-0.02739767 0.053142 -0.0123493085 181 136 141
-0.026766192 0.053142 -0.014004373 192 158 169
-0.026134739 0.053142 -0.015659375 203 159 141
-0.02269292 0.0532983 -0.016264476 203 161 139
-0.022059608 0.0532983 -0.017924346 204 158 134
-0.021426298 0.0532983 -0.019584214 201 155 155
-0.020792965 0.0532983 -0.021244146 198 153 128
-0.01734188 0.053454597 -0.021873528 192 152 108
-0.012947188 0.053662997 -0.022170832 186 151 118
-0.034343753 0.051370602 0.005855955 147 1 26
-0.036498487 0.051219508 0.0030876836 147 2 31
-0.035868876 0.051219508 0.0014375182 150 1 37
-0.032449372 0.051370602 8.9088915E-4 150 1 33
-0.031817906 0.051370602 -7.64143E-4 147 1 30
-0.03118644 0.051370602 -0.002419176 147 1 46
-0.030554974 0.051370602 -0.0040742084 159 1 62
-0.029923508 0.051370602 -0.005729241 159 1 69
-0.029292054 0.051370602 -0.007384242 163 1 76
-0.025859535 0.05152169 -0.007964976 163 1 95
-0.025226211 0.05152169 -0.009624876 154 7 115
-0.029572818 0.051219508 -0.015064068 187 60 167
-0.028943222 0.051219508 -0.0167142 187 108 141
-0.025503261 0.051370602 -0.017314438 212 135 116
-0.024871808 0.051370602 -0.018969439 212 162 134
-0.021426298 0.05152169 -0.019584214 197 158 152
-0.020792965 0.05152169 -0.021244146 197 155 128
-0.020159652 0.05152169 -0.022904014 166 155 104
-0.012947188 0.05187423 -0.022170832 166 155 118
-0.037128095 0.04945332 0.0047378475 153 1 39
-0.036498487 0.04945332 0.0030876836 150 1 30
-0.035868876 0.04945332 0.0014375182 151 2 22
-0.03523928 0.04945332 -2.12615E-4 152 1 4
-0.03460967 0.04945332 -0.0018627796 152 1 15
-0.033980064 0.04945332 -0.0035129453 152 1 12
-0.033350457 0.04945332 -0.00516311 152 1 43
-0.03272085 0.04945332 -0.0068132747 152 1 33
-0.032091253 0.04945332 -0.008463408 153 1 59
-0.031461645 0.04945332 -0.010113573 154 1 21
-0.030832035 0.04945332 -0.011763738 140 1 58
-0.03300721 0.049307443 -0.014478434 127 1 29
-0.03237945 0.049307443 -0.016123762 149 1 112
-0.031751707 0.049307443 -0.017769028 172 93 111
-0.028313603 0.04945332 -0.018364398 196 185 141
-0.027684005 0.04945332 -0.02001453 221 176 161
-0.024240354 0.0495992 -0.02062444 208 168 154
-0.023608875 0.0495992 -0.022279503 196 149 130
-0.020159652 0.049745083 -0.022904014 171 130 104
-0.016706688 0.04989096 -0.023538327 146 136 104
-0.037128095 0.047687136 0.0047378475 146 1 52
-0.039284684 0.04754646 0.0019744434 146 2 30
-0.03865693 0.04754646 3.291464E-4 153 4 8
-0.038029194 0.04754646 -0.0013161201 153 7 4
-0.037401445 0.04754646 -0.0029614172 153 5 1
-0.036773693 0.04754646 -0.004606713 153 3 12
-0.036145944 0.04754646 -0.006252011 157 3 24
-0.035518188 0.04754646 -0.007897308 157 3 33
-0.03489045 0.04754646 -0.009542574 159 2 42
-0.031461645 0.047687136 -0.010113573 159 1 21
-0.03363495 0.04754646 -0.012833168 141 1 1
-0.035811983 0.047405794 -0.015542997 141 1 29
-0.035186075 0.047405794 -0.017183458 198 86 57
-0.034560192 0.047405794 -0.018823856 198 172 111
-0.033934288 0.047405794 -0.020464318 220 178 166
-0.027054409 0.047687136 -0.021664664 199 170 156
-0.02642479 0.047687136 -0.023314862 199 156 130
-0.022977423 0.047827806 -0.023934506 127 116 105
-0.019526318 0.047968477 -0.024563948 127 76 104
-0.037128095 0.045920946 0.0047378475 145 1 30
-0.039284684 0.045785483 0.0019744434 143 3 8
-0.03865693 0.045785483 3.291464E-4 148 5 8
-0.038029194 0.045785483 -0.0013161201 154 4 5
-0.040193215 0.045650024 -0.0040600537 154 3 1
-0.039567318 0.045650024 -0.0057004844 154 3 2
-0.038941424 0.045650024 -0.007340913 158 3 14
-0.03831553 0.045650024 -0.008981342 163 5 19
-0.03489045 0.045785483 -0.009542574 163 7 38
-0.0342627 0.045785483 -0.011187871 164 4 17
-0.03363495 0.045785483 -0.012833168 160 1 1
-0.035811983 0.045650024 -0.015542997 156 66 78
-0.035186075 0.045650024 -0.017183458 190 132 106
-0.037368674 0.045514565 -0.019878684 225 159 147
-0.036744624 0.045514565 -0.021514276 222 187 152
-0.0361206 0.045514565 -0.023149807 220 182 155
-0.032682523 0.045650024 -0.023745114 211 178 163
-0.03205662 0.045650024 -0.025385574 203 145 135
-0.031430736 0.045650024 -0.02702597 155 113 102
-0.022345945 0.046056405 -0.025589569 108 73 63
-0.037128095 0.04415476 0.0047378475 150 6 8
-0.039284684 0.04402451 0.0019744434 150 12 8
-0.041444987 0.043894257 -7.7922724E-4 154 7 9
-0.04081911 0.043894257 -0.0024196252 154 3 5
-0.040193215 0.043894257 -0.0040600537 148 3 1
-0.042360943 0.043764006 -0.0067942524 148 4 2
-0.04173691 0.043764006 -0.008429814 160 3 4
-0.04111287 0.043764006 -0.010065376 160 3 19
-0.040488847 0.043764006 -0.011700907 157 2 34
-0.03986481 0.043764006 -0.013336468 157 1 17
-0.039240774 0.043764006 -0.014972029 174 32 1
-0.040486597 0.043677174 -0.01731727 174 64 78
-0.039863784 0.043677174 -0.018949617 232 134 156
-0.039240997 0.043677174 -0.020581901 232 205 147
-0.03861819 0.043677174 -0.02221425 225 198 139
-0.0379954 0.043677174 -0.023846535 225 192 155
-0.037372615 0.043677174 -0.025478821 184 175 171
-0.036749806 0.043677174 -0.027111167 184 159 135
-0.034248505 0.043764006 -0.028056461 59 81 99
-0.0279852 0.04402451 -0.027640812 59 4 63
-0.037128095 0.04238857 0.0047378475 153 16 9
-0.039284684 0.04226353 0.0019744434 158 10 31
-0.041444987 0.042138487 -7.7922724E-4 156 5 31
-0.04081911 0.042138487 -0.0024196252 155 4 27
-0.040193215 0.042138487 -0.0040600537 148 3 1
-0.042360943 0.04201345 -0.0067942524 142 4 6
-0.04173691 0.04201345 -0.008429814 149 5 8
-0.04111287 0.04201345 -0.010065376 157 3 9
-0.040488847 0.04201345 -0.011700907 154 1 20
-0.04173218 0.041930087 -0.014052668 151 1 51
-0.041109383 0.041930087 -0.015684985 172 1 48
-0.043291364 0.04180505 -0.018381832 193 98 138
-0.04267041 0.04180505 -0.02000931 216 196 169
-0.04204948 0.04180505 -0.021636728 240 196 168
-0.04142853 0.04180505 -0.023264207 235 196 147
-0.040807597 0.04180505 -0.024891626 231 187 143
-0.037372615 0.041930087 -0.025478821 198 179 151
-0.036749806 0.041930087 -0.027111167 166 118 104
-0.03612702 0.041930087 -0.028743453 88 57 88
-0.033624455 0.04201345 -0.029692056 11 49 79
-0.037128095 0.04062238 0.0047378475 162 6 10
-0.039284684 0.040502552 0.0019744434 162 9 31
-0.041444987 0.04038272 -7.7922724E-4 155 6 53
-0.04081911 0.04038272 -0.0024196252 155 4 27
-0.04298498 0.04026289 -0.005158691 147 5 1
-0.042360943 0.04026289 -0.0067942524 147 6 6
-0.04173691 0.04026289 -0.008429814 156 4 12
-0.04297777 0.040183004 -0.010788066 156 3 9
-0.04235498 0.040183004 -0.012420351 147 2 7
-0.04173218 0.040183004 -0.014052668 147 1 51
-0.041109383 0.040183004 -0.015684985 211 97 95
-0.043291364 0.040063176 -0.018381832 211 193 138
-0.04267041 0.040063176 -0.02000931 241 195 182
-0.04204948 0.040063176 -0.021636728 241 198 168
-0.04142853 0.040063176 -0.023264207 223 195 155
-0.040807597 0.040063176 -0.024891626 223 192 143
-0.04018667 0.040063176 -0.026519043 132 129 132
-0.039565716 0.040063176 -0.028146522 132 66 104
-0.038944785 0.040063176 -0.029773941 22 45 77
-0.03080483 0.04038272 -0.028666431 22 24 79
-0.037128095 0.038856167 0.0047378475 153 2 20
-0.039284684 0.038741548 0.0019744434 166 3 34
-0.041444987 0.038626928 -7.7922724E-4 160 4 46
-0.04081911 0.038626928 -0.0024196252 155 4 32
-0.04298498 0.038512304 -0.005158691 153 4 13
-0.04422336 0.038435895 -0.007523433 152 4 26
-0.04173691 0.038512304 -0.008429814 154 4 19
-0.04297777 0.038435895 -0.010788066 156 2 13
-0.04235498 0.038435895 -0.012420351 150 1 4
-0.04173218 0.038435895 -0.014052668 144 69 62
-0.041109383 0.038435895 -0.015684985 186 137 109
-0.043291364 0.038321275 -0.018381832 229 179 148
-0.04267041 0.038321275 -0.02000931 236 221 177
-0.04204948 0.038321275 -0.021636728 243 210 166
-0.04142853 0.038321275 -0.023264207 229 199 157
-0.040807597 0.038321275 -0.024891626 215 165 100
-0.04018667 0.038321275 -0.026519043 156 131 87
-0.039565716 0.038321275 -0.028146522 98 70 49
-0.038944785 0.038321275 -0.029773941 65 10 66
-0.038323835 0.038321275 -0.031401422 33 27 67
-0.037128095 0.03708998 0.0047378475 157 2 30
-0.039284684 0.03698057 0.0019744434 157 2 34
-0.041444987 0.036871158 -7.7922724E-4 151 2 39
-0.04081911 0.036871158 -0.0024196252 151 3 32
-0.04298498 0.03676175 -0.005158691 150 3 26
-0.042360943 0.03676175 -0.0067942524 150 3 26
-0.043600563 0.03668881 -0.009155749 149 2 26
-0.04297777 0.03668881 -0.010788066 149 1 13
-0.04235498 0.03668881 -0.012420351 168 25 1
-0.04173218 0.03668881 -0.014052668 168 49 62
-0.041109383 0.03668881 -0.015684985 234 131 124
-0.043291364 0.0365794 -0.018381832 234 214 148
-0.04267041 0.0365794 -0.02000931 236 206 173
-0.04204948 0.0365794 -0.021636728 236 199 166
-0.04142853 0.0365794 -0.023264207 197 179 159
-0.040807597 0.0365794 -0.024891626 197 160 100
-0.04018667 0.0365794 -0.026519043 66 80 42
-0.039565716 0.0365794 -0.028146522 66 1 49
-0.038944785 0.0365794 -0.029773941 48 26 56
-0.038323835 0.0365794 -0.031401422 48 52 67
-0.037128095 0.03532379 0.0047378475 140 1 16
-0.039284684 0.035219587 0.0019744434 149 1 10
-0.03865693 0.035219587 3.291464E-4 148 2 28
-0.04081911 0.03511539 -0.0024196252 147 2 16
-0.04298498 0.03501119 -0.005158691 147 3 20
-0.042360943 0.03501119 -0.0067942524 148 3 8
-0.04173691 0.03501119 -0.008429814 145 3 14
-0.04297777 0.03494172 -0.010788066 142 2 44
-0.04235498 0.03494172 -0.012420351 167 1 43
-0.04173218 0.03494172 -0.014052668 193 103 130
-0.041109383 0.03494172 -0.015684985 216 205 149
-0.043291364 0.034837525 -0.018381832 239 196 189
-0.04267041 0.034837525 -0.02000931 234 187 188
-0.04204948 0.034837525 -0.021636728 230 187 157
-0.04142853 0.034837525 -0.023264207 204 188 135
-0.040807597 0.034837525 -0.024891626 179 129 95
-0.04018667 0.034837525 -0.026519043 106 71 60
-0.039565716 0.034837525 -0.028146522 34 54 85
-0.038944785 0.034837525 -0.029773941 49 37 74
-0.037128095 0.0335576 0.0047378475 144 2 3
-0.036498487 0.0335576 0.0030876836 144 4 10
-0.03865693 0.033458613 3.291464E-4 141 3 18
-0.038029194 0.033458613 -0.0013161201 141 2 16
-0.040193215 0.033359624 -0.0040600537 138 2 14
-0.042360943 0.033260632 -0.0067942524 138 3 8
-0.04173691 0.033260632 -0.008429814 141 2 3
-0.04111287 0.033260632 -0.010065376 141 1 44
-0.04235498 0.033194643 -0.012420351 208 96 86
-0.04173218 0.033194643 -0.014052668 208 191 130
-0.041109383 0.033194643 -0.015684985 235 196 175
-0.043291364 0.03309565 -0.018381832 235 201 189
-0.04267041 0.03309565 -0.02000931 222 196 203
-0.04204948 0.03309565 -0.021636728 222 192 157
-0.04142853 0.03309565 -0.023264207 155 141 112
-0.040807597 0.03309565 -0.024891626 155 90 95
-0.04018667 0.03309565 -0.026519043 47 74 78
-0.039565716 0.03309565 -0.028146522 47 59 85
-0.038944785 0.03309565 -0.029773941 66 63 92
-0.037128095 0.031791415 0.0047378475 141 1 5
-0.036498487 0.031791415 0.0030876836 140 1 14
-0.03865693 0.031697635 3.291464E-4 138 1 19
-0.038029194 0.031697635 -0.0013161201 136 1 11
-0.040193215 0.031603854 -0.0040600537 132 1 7
-0.039567318 0.031603854 -0.0057004844 128 1 1
-0.038941424 0.031603854 -0.007340913 134 1 2
-0.04111287 0.031510074 -0.010065376 140 68 70
-0.04235498 0.031447552 -0.012420351 181 136 113
-0.04173218 0.031447552 -0.014052668 223 175 153
-0.041109383 0.031447552 -0.015684985 227 214 171
-0.043291364 0.031353775 -0.018381832 232 197 171
-0.04267041 0.031353775 -0.02000931 223 181 189
-0.04204948 0.031353775 -0.021636728 215 163 117
-0.04142853 0.031353775 -0.023264207 173 145 85
-0.0379954 0.031447552 -0.023846535 132 97 44
-0.037372615 0.031447552 -0.025478821 96 50 54
-0.039565716 0.031353775 -0.028146522 61 59 55
-0.038944785 0.031353775 -0.029773941 64 69 86
-0.038323835 0.031353775 -0.031401422 68 65 73
-0.037128095 0.030025227 0.0047378475 149 1 7
-0.036498487 0.030025227 0.0030876836 149 1 14
-0.035868876 0.030025227 0.0014375182 145 2 21
-0.038029194 0.029936656 -0.0013161201 145 3 11
-0.037401445 0.029936656 -0.0029614172 130 2 1
-0.039567318 0.029848086 -0.0057004844 130 1 1
-0.038941424 0.029848086 -0.007340913 137 3 1
-0.03831553 0.029848086 -0.008981342 137 5 70
-0.040488847 0.029759515 -0.011700907 222 97 140
-0.04173218 0.02970047 -0.014052668 222 190 153
-0.041109383 0.02970047 -0.015684985 221 191 167
-0.043291364 0.0296119 -0.018381832 221 193 171
-0.04267041 0.0296119 -0.02000931 197 181 176
-0.039240997 0.02970047 -0.020581901 197 169 117
-0.03861819 0.02970047 -0.02221425 154 119 59
-0.0379954 0.02970047 -0.023846535 154 70 44
-0.037372615 0.02970047 -0.025478821 58 57 30
-0.039565716 0.0296119 -0.028146522 58 45 55
-0.038944785 0.0296119 -0.029773941 58 54 80
-0.037128095 0.028259037 0.0047378475 155 13 12
-0.036498487 0.028259037 0.0030876836 159 7 12
-0.035868876 0.028259037 0.0014375182 157 1 14
-0.038029194 0.028175678 -0.0013161201 155 1 13
-0.037401445 0.028175678 -0.0029614172 144 2 9
-0.036773693 0.028175678 -0.004606713 133 1 9
-0.038941424 0.028092317 -0.007340913 134 1 1
-0.03831553 0.028092317 -0.008981342 135 75 69
-0.040488847 0.028008956 -0.011700907 178 150 139
-0.04173218 0.027953384 -0.014052668 222 171 155
-0.041109383 0.027953384 -0.015684985 216 192 169
-0.040486597 0.027953384 -0.01731727 211 181 166
-0.039863784 0.027953384 -0.018949617 195 170 168
-0.039240997 0.027953384 -0.020581901 180 164 132
-0.03861819 0.027953384 -0.02221425 178 159 81
-0.0379954 0.027953384 -0.023846535 177 113 53
-0.037372615 0.027953384 -0.025478821 116 67 16
-0.036749806 0.027953384 -0.027111167 55 50 39
-0.038944785 0.027870024 -0.029773941 51 34 78
-0.034343753 0.026571 0.005855955 161 3 17
-0.033712287 0.026571 0.004200923 161 4 12
-0.035868876 0.026492849 0.0014375182 156 3 8
-0.03523928 0.026492849 -2.12615E-4 156 2 13
-0.037401445 0.0264147 -0.0029614172 142 1 18
-0.036773693 0.0264147 -0.004606713 142 1 9
-0.036145944 0.0264147 -0.006252011 140 13 1
-0.035518188 0.0264147 -0.007897308 140 26 69
-0.040488847 0.0262584 -0.011700907 199 107 138
-0.04173218 0.0262063 -0.014052668 199 189 155
-0.041109383 0.0262063 -0.015684985 196 181 172
-0.043291364 0.026128149 -0.018381832 196 173 166
-0.039863784 0.0262063 -0.018949617 183 163 160
-0.039240997 0.0262063 -0.020581901 183 153 132
-0.03861819 0.0262063 -0.02221425 151 148 104
-0.0361206 0.0262584 -0.023149807 151 144 53
-0.035496578 0.0262584 -0.024785338 83 92 3
-0.03612702 0.0262063 -0.028743453 53 36 76
-0.034343753 0.0247996 0.005855955 160 4 47
-0.033712287 0.0247996 0.004200923 163 3 54
-0.033080827 0.0247996 0.0025458909 160 2 19
-0.03523928 0.02472666 -2.12615E-4 158 1 33
-0.03460967 0.02472666 -0.0018627796 155 1 27
-0.033980064 0.02472666 -0.0035129453 152 1 19
-0.033350457 0.02472666 -0.00516311 149 1 1
-0.035518188 0.024653722 -0.007897308 146 48 19
-0.03489045 0.024653722 -0.009542574 161 96 88
-0.037063755 0.024580782 -0.01226217 176 125 98
-0.03643786 0.024580782 -0.013902599 179 155 165
-0.03861675 0.024507841 -0.016607558 182 156 146
-0.037992697 0.024507841 -0.018243153 184 158 147
-0.037368674 0.024507841 -0.019878684 186 150 102
-0.036744624 0.024507841 -0.021514276 155 142 87
-0.0361206 0.024507841 -0.023149807 125 120 37
-0.035496578 0.024507841 -0.024785338 118 98 3
-0.03487253 0.024507841 -0.026420929 112 78 9
-0.03612702 0.024459215 -0.028743453 85 59 45
-0.035504207 0.024459215 -0.030375801 58 39 24
-0.034343753 0.023028202 0.005855955 162 2 78
-0.030926093 0.023095934 0.0053141634 162 3 54
-0.033080827 0.023028202 0.0025458909 157 2 30
-0.032449372 0.023028202 8.9088915E-4 157 1 33
-0.03460967 0.022960473 -0.0018627796 152 1 37
-0.033980064 0.022960473 -0.0035129453 152 1 19
-0.033350457 0.022960473 -0.00516311 146 3 1
-0.03272085 0.022960473 -0.0068132747 146 5 19
-0.03489045 0.022892741 -0.009542574 154 37 38
-0.0342627 0.022892741 -0.011187871 154 69 98
-0.039240774 0.022757282 -0.014972029 162 95 158
-0.03861675 0.022757282 -0.016607558 162 121 146
-0.037992697 0.022757282 -0.018243153 155 124 135
-0.037368674 0.022757282 -0.019878684 155 127 102
-0.036744624 0.022757282 -0.021514276 90 83 70
-0.0361206 0.022757282 -0.023149807 90 39 37
-0.035496578 0.022757282 -0.024785338 92 66 4
-0.03487253 0.022757282 -0.026420929 92 94 9
-0.035504207 0.02271213 -0.030375801 60 62 24
-0.034343753 0.021256806 0.005855955 160 1 51
-0.033712287 0.021256806 0.004200923 161 3 25
-0.033080827 0.021256806 0.0025458909 158 5 28
-0.032449372 0.021256806 8.9088915E-4 156 3 24
-0.03460967 0.021194285 -0.0018627796 154 1 30
-0.033980064 0.021194285 -0.0035129453 152 1 20
-0.033350457 0.021194285 -0.00516311 149 1 9
-0.03272085 0.021194285 -0.0068132747 147 1 16
-0.032091253 0.021194285 -0.008463408 140 1 26
-0.0342627 0.021131765 -0.011187871 133 1 20
-0.03363495 0.021131765 -0.012833168 137 2 92
-0.035811983 0.021069244 -0.015542997 142 63 41
-0.037992697 0.021006726 -0.018243153 133 125 96
-0.037368674 0.021006726 -0.019878684 124 102 29
-0.036744624 0.021006726 -0.021514276 89 80 36
-0.0361206 0.021006726 -0.023149807 55 84 1
-0.035496578 0.021006726 -0.024785338 64 88 2
-0.03487253 0.021006726 -0.026420929 73 80 1
-0.035504207 0.020965043 -0.030375801 62 42 1
-0.034343753 0.019485407 0.005855955 162 2 24
-0.033712287 0.019485407 0.004200923 162 4 25
-0.033080827 0.019485407 0.0025458909 152 3 26
-0.032449372 0.019485407 8.9088915E-4 152 2 24
-0.03460967 0.019428097 -0.0018627796 154 1 23
-0.033980064 0.019428097 -0.0035129453 154 1 20
-0.033350457 0.019428097 -0.00516311 152 1 18
-0.03272085 0.019428097 -0.0068132747 152 1 16
-0.032091253 0.019428097 -0.008463408 140 1 14
-0.031461645 0.019428097 -0.010113573 140 1 20
-0.03363495 0.019370787 -0.012833168 142 39 26
-0.035811983 0.019313477 -0.015542997 142 77 41
-0.037992697 0.019256167 -0.018243153 93 78 57
-0.037368674 0.019256167 -0.019878684 93 80 29
-0.036744624 0.019256167 -0.021514276 65 83 2
-0.0361206 0.019256167 -0.023149807 65 87 1
-0.03487253 0.019256167 -0.026420929 72 81 1
-0.034248505 0.019256167 -0.028056461 60 74 1
-0.034343753 0.017714009 0.005855955 163 2 12
-0.033712287 0.017714009 0.004200923 163 3 27
-0.033080827 0.017714009 0.0025458909 156 4 40
-0.032449372 0.017714009 8.9088915E-4 149 2 33
-0.03460967 0.017661907 -0.0018627796 152 1 18
-0.033980064 0.017661907 -0.0035129453 156 1 18
-0.033350457 0.017661907 -0.00516311 156 2 20
-0.03272085 0.017661907 -0.0068132747 157 1 18
-0.032091253 0.017661907 -0.008463408 152 1 14
-0.031461645 0.017661907 -0.010113573 148 2 13
-0.03363495 0.017609809 -0.012833168 145 3 19
-0.035811983 0.017557709 -0.015542997 143 36 8
-0.037992697 0.017505608 -0.018243153 102 70 30
-0.037368674 0.017505608 -0.019878684 62 78 2
-0.03861819 0.017470874 -0.02221425 69 87 1
-0.0361206 0.017505608 -0.023149807 76 85 1
-0.037372615 0.017470874 -0.025478821 73 83 1
-0.036749806 0.017470874 -0.027111167 71 77 1
-0.034248505 0.017505608 -0.028056461 64 72 1
-0.03080483 0.017557709 -0.028666431 58 36 2
-0.034343753 0.015942609 0.005855955 164 1 1
-0.033712287 0.015942609 0.004200923 164 2 27
-0.033080827 0.015942609 0.0025458909 155 3 54
-0.032449372 0.015942609 8.9088915E-4 155 4 33
-0.03460967 0.015895719 -0.0018627796 159 7 13
-0.033980064 0.015895719 -0.0035129453 159 10 18
-0.033350457 0.015895719 -0.00516311 161 8 23
-0.03272085 0.015895719 -0.0068132747 161 7 18
-0.032091253 0.015895719 -0.008463408 153 4 14
-0.031461645 0.015895719 -0.010113573 153 1 13
-0.03363495 0.01584883 -0.012833168 140 21 13
-0.035811983 0.01580194 -0.015542997 140 42 8
-0.037992697 0.01575505 -0.018243153 63 62 3
-0.037368674 0.01575505 -0.019878684 63 82 2
-0.03861819 0.015723791 -0.02221425 71 82 1
-0.0361206 0.01575505 -0.023149807 71 82 1
-0.037372615 0.015723791 -0.025478821 65 77 1
-0.03487253 0.01575505 -0.026420929 65 72 1
-0.031430736 0.01580194 -0.02702597 54 68 1
-0.0279852 0.01584883 -0.027640812 54 64 2
-0.034343753 0.014171211 0.005855955 164 1 11
-0.036498487 0.014129532 0.0030876836 165 1 20
-0.035868876 0.014129532 0.0014375182 163 2 37
-0.03523928 0.014129532 -2.12615E-4 161 6 10
-0.03460967 0.014129532 -0.0018627796 162 10 7
-0.033980064 0.014129532 -0.0035129453 163 15 19
-0.033350457 0.014129532 -0.00516311 164 20 30
-0.03272085 0.014129532 -0.0068132747 165 11 34
-0.032091253 0.014129532 -0.008463408 162 2 22
-0.031461645 0.014129532 -0.010113573 159 4 21
-0.03363495 0.014087851 -0.012833168 148 6 12
-0.035811983 0.014046171 -0.015542997 137 33 6
-0.037992697 0.014004492 -0.018243153 101 61 2
-0.037368674 0.014004492 -0.019878684 65 70 1
-0.03861819 0.013976704 -0.02221425 66 79 1
-0.0361206 0.014004492 -0.023149807 67 75 1
-0.037372615 0.013976704 -0.025478821 63 71 1
-0.03487253 0.014004492 -0.026420929 60 69 1
-0.0279852 0.014087851 -0.027640812 50 35 15
-0.034343753 0.012399788 0.005855955 167 1 21
