ply
format ascii 1.0
comment This is your Processing ply file
element vertex 992
property float x
property float y
property float z
property uchar red
property uchar green
property uchar blue
end_header
0.009535754 -0.033194643 -0.044661313 118 106 96
0.011279591 -0.033194643 -0.04476738 112 98 94
0.013023495 -0.033194643 -0.04487345 112 90 94
0.014767332 -0.033194643 -0.04497952 105 88 94
0.01651117 -0.033194643 -0.045085583 105 86 92
0.018418098 -0.033260632 -0.043197878 103 84 90
0.020415142 -0.033359624 -0.040313795 103 82 92
0.022677593 -0.0335576 -0.03444032 102 81 94
0.02522092 -0.033854574 -0.025578385 102 80 95
0.026999425 -0.033854574 -0.02568656 105 82 96
0.028778 -0.033854574 -0.025794739 105 84 95
0.03092416 -0.03398656 -0.021917885 116 87 94
0.03299061 -0.03408555 -0.019038029 116 91 94
0.034495108 -0.03398656 -0.022135083 127 94 95
0.036280546 -0.03398656 -0.022243679 127 97 98
-0.036845442 -0.035879552 -0.01479034 138 123 138
-0.0352492 -0.035636418 -0.021900365 143 125 143
-0.033559185 -0.035532214 -0.025008703 147 128 144
-0.03187961 -0.035428017 -0.028116405 152 126 143
-0.0302104 -0.035323814 -0.031223474 148 125 139
-0.02844746 -0.035323814 -0.031330705 144 124 136
-0.026793852 -0.035219617 -0.03443683 143 123 132
-0.025036113 -0.035219617 -0.03454374 142 122 131
-0.023278408 -0.035219617 -0.03465065 145 121 129
-0.02152067 -0.035219617 -0.034757566 149 119 126
-0.019762931 -0.035219617 -0.034864474 142 118 126
-0.018140525 -0.035115417 -0.0379687 135 116 122
-0.016387986 -0.035115417 -0.038075294 134 115 121
-0.014635481 -0.035115417 -0.03818189 134 113 118
-0.012882943 -0.035115417 -0.038288485 133 112 117
-0.011130406 -0.035115417 -0.03839508 133 110 115
-0.009377868 -0.035115417 -0.03850168 130 108 114
-0.007625329 -0.035115417 -0.03860827 128 108 110
-0.005872825 -0.035115417 -0.038714867 126 108 110
-0.004297221 -0.035011217 -0.041816242 125 106 101
-0.002549884 -0.035011217 -0.041922525 126 105 100
-6.1524496E-4 -0.035115417 -0.039034653 127 105 101
0.0011373262 -0.035115417 -0.03914125 128 105 107
0.0028898304 -0.035115417 -0.039247844 129 107 112
0.004439466 -0.035011217 -0.04234764 126 109 111
0.006394907 -0.035115417 -0.039461035 124 107 108
0.0077918503 -0.034941748 -0.044555243 120 106 99
0.009535754 -0.034941748 -0.044661313 116 100 94
0.011279591 -0.034941748 -0.04476738 112 94 91
0.013023495 -0.034941748 -0.04487345 108 90 87
0.014767332 -0.034941748 -0.04497952 104 87 90
0.016910065 -0.035115417 -0.040100608 101 85 86
0.018662637 -0.035115417 -0.040207207 100 83 88
0.020664882 -0.035219617 -0.037323445 100 82 88
0.022677593 -0.035323814 -0.03444032 99 82 92
0.024960779 -0.035532214 -0.028568106 99 83 93
0.026999425 -0.035636418 -0.02568656 102 84 96
0.028778 -0.035636418 -0.025794739 106 87 97
0.03092416 -0.03577535 -0.021917885 112 90 95
0.03299061 -0.035879552 -0.019038029 118 91 98
0.034495108 -0.03577535 -0.022135083 121 93 97
0.036280546 -0.03577535 -0.022243679 125 93 97
-0.036845442 -0.0376735 -0.01479034 142 114 140
-0.0352492 -0.03741821 -0.021900365 142 129 143
-0.033559185 -0.0373088 -0.025008703 147 127 146
-0.03187961 -0.03719939 -0.028116405 147 125 143
-0.03011147 -0.03719939 -0.028223949 141 124 140
-0.02844746 -0.03708998 -0.031330705 141 124 136
-0.02668452 -0.03708998 -0.031437933 139 122 133
-0.025036113 -0.03698057 -0.03454374 139 121 131
-0.023278408 -0.03698057 -0.03465065 141 119 129
-0.02152067 -0.03698057 -0.034757566 141 117 126
-0.019762931 -0.03698057 -0.034864474 133 115 124
-0.018005192 -0.03698057 -0.03497139 133 113 122
-0.016387986 -0.036871158 -0.038075294 131 111 120
-0.014635481 -0.036871158 -0.03818189 131 109 118
-0.012882943 -0.036871158 -0.038288485 130 108 117
-0.011130406 -0.036871158 -0.03839508 130 108 115
-0.009377868 -0.036871158 -0.03850168 126 107 113
-0.007625329 -0.036871158 -0.03860827 126 107 110
-0.005872825 -0.036871158 -0.038714867 124 105 108
-0.004297221 -0.03676175 -0.041816242 124 104 101
-0.002549884 -0.03676175 -0.041922525 123 104 95
-6.1524496E-4 -0.036871158 -0.039034653 123 104 101
0.0011373262 -0.036871158 -0.03914125 124 106 108
0.0028898304 -0.036871158 -0.039247844 124 109 112
0.004642402 -0.036871158 -0.039354444 118 109 116
0.006394907 -0.036871158 -0.039461035 118 110 108
0.00814741 -0.036871158 -0.03956763 111 103 100
0.009681446 -0.03676175 -0.042666476 111 97 94
0.011428749 -0.03676175 -0.042772755 102 91 89
0.013176121 -0.03676175 -0.042879038 102 85 87
0.014923424 -0.03676175 -0.042985313 97 82 86
0.016910065 -0.036871158 -0.040100608 97 80 86
0.018907176 -0.03698057 -0.037216537 96 79 87
0.020914622 -0.03708998 -0.034333088 96 79 88
0.022932535 -0.03719939 -0.031450283 97 80 90
0.024960779 -0.0373088 -0.028568106 97 82 93
0.026999425 -0.03741821 -0.02568656 106 85 97
0.028778 -0.03741821 -0.025794739 106 89 97
0.030556507 -0.03741821 -0.025902914 119 91 97
0.03270967 -0.03756409 -0.022026485 119 94 98
0.034495108 -0.03756409 -0.022135083 125 94 100
0.036280546 -0.03756409 -0.022243679 125 95 97
-0.03692357 -0.03935288 -0.017791133 132 118 135
-0.0352492 -0.039200053 -0.021900365 141 123 146
-0.033559185 -0.039085433 -0.025008703 142 129 153
-0.03187961 -0.038970813 -0.028116405 143 126 148
-0.03011147 -0.038970813 -0.028223949 140 124 138
-0.02844746 -0.038856193 -0.031330705 138 123 132
-0.02668452 -0.038856193 -0.031437933 137 122 130
-0.024921583 -0.038856193 -0.03154516 137 120 124
-0.023278408 -0.038741574 -0.03465065 135 118 125
-0.02152067 -0.038741574 -0.034757566 134 116 120
-0.019632801 -0.038856193 -0.031866845 132 114 122
-0.018005192 -0.038741574 -0.03497139 131 112 119
-0.016247455 -0.038741574 -0.035078302 130 110 119
-0.014635481 -0.038626954 -0.03818189 129 109 115
-0.012882943 -0.038626954 -0.038288485 128 108 114
-0.011130406 -0.038626954 -0.03839508 128 108 110
-0.009377868 -0.038626954 -0.03850168 126 108 110
-0.007625329 -0.038626954 -0.03860827 125 106 107
-0.005872825 -0.038626954 -0.038714867 124 105 107
-0.004297221 -0.038512334 -0.041816242 123 103 105
-0.002549884 -0.038512334 -0.041922525 121 102 99
-6.1524496E-4 -0.038626954 -0.039034653 120 104 102
0.0011373262 -0.038626954 -0.03914125 120 106 104
0.0028898304 -0.038626954 -0.039247844 120 108 98
0.004642402 -0.038626954 -0.039354444 116 111 106
0.0066030435 -0.038741574 -0.036468152 113 104 93
0.00814741 -0.038626954 -0.03956763 109 97 95
0.009899982 -0.038626954 -0.03967423 106 90 86
0.011428749 -0.038512334 -0.042772755 101 83 86
0.013405058 -0.038626954 -0.03988742 97 81 80
0.015157564 -0.038626954 -0.039994016 95 80 81
0.017149404 -0.038741574 -0.037109625 94 78 77
0.019151716 -0.038856193 -0.034225866 93 77 82
0.020914622 -0.038856193 -0.034333088 93 76 79
0.022932535 -0.038970813 -0.031450283 94 76 85
0.024960779 -0.039085433 -0.028568106 95 79 86
0.026999425 -0.039200053 -0.02568656 101 83 94
0.028778 -0.039200053 -0.025794739 107 89 92
0.03092416 -0.03935288 -0.021917885 114 96 95
0.03270967 -0.03935288 -0.022026485 121 95 101
0.034495108 -0.03935288 -0.022135083 123 94 104
0.036280546 -0.03935288 -0.022243679 126 94 105
-0.03692357 -0.04114162 -0.017791133 146 112 131
-0.0352492 -0.040981844 -0.021900365 146 126 146
-0.033559185 -0.040862016 -0.025008703 140 125 161
-0.03187961 -0.04074219 -0.028116405 140 125 148
-0.030012542 -0.040862016 -0.025224425 134 122 136
-0.028343333 -0.04074219 -0.028331496 134 119 132
-0.026575193 -0.04074219 -0.02843904 133 118 128
-0.024921583 -0.040622357 -0.03154516 133 118 124
-0.023158679 -0.040622357 -0.031652387 132 114 121
-0.021395741 -0.040622357 -0.031759616 132 110 120
-0.019632801 -0.040622357 -0.031866845 128 108 120
-0.017869862 -0.040622357 -0.031974073 128 106 119
-0.016247455 -0.040502526 -0.035078302 126 106 118
-0.0144897485 -0.040502526 -0.03518521 126 106 115
-0.012882943 -0.040382694 -0.038288485 126 105 112
-0.011130406 -0.040382694 -0.03839508 126 105 110
-0.009377868 -0.040382694 -0.03850168 123 103 108
-0.007625329 -0.040382694 -0.03860827 123 102 107
-0.0060445587 -0.040262867 -0.041709963 120 101 107
-0.004297221 -0.040262867 -0.041816242 120 101 105
-0.002549884 -0.040262867 -0.041922525 116 101 104
-6.1524496E-4 -0.040382694 -0.039034653 116 102 102
0.0011373262 -0.040382694 -0.03914125 115 104 100
0.0028898304 -0.040382694 -0.039247844 115 106 98
0.004845338 -0.040502526 -0.036361244 108 103 96
0.0066030435 -0.040502526 -0.036468152 108 100 93
0.008360748 -0.040502526 -0.03657506 100 90 90
0.009899982 -0.040382694 -0.03967423 100 81 86
0.011652486 -0.040382694 -0.03978082 93 81 83
0.013633996 -0.040502526 -0.0368958 93 81 80
0.015391702 -0.040502526 -0.037002712 90 76 77
0.017388744 -0.040622357 -0.034118634 90 71 77
0.019151716 -0.040622357 -0.034225866 89 71 78
0.020914622 -0.040622357 -0.034333088 89 71 79
0.022932535 -0.04074219 -0.031450283 92 72 81
0.024960779 -0.040862016 -0.028568106 92 73 86
0.026734086 -0.040862016 -0.028675964 101 77 91
0.028778 -0.040981844 -0.025794739 101 82 92
0.030556507 -0.040981844 -0.025902914 133 94 94
0.03233508 -0.040981844 -0.026011093 133 107 101
0.034495108 -0.04114162 -0.022135083 129 101 108
-0.03692357 -0.04293041 -0.017791133 146 127 131
-0.0352492 -0.04276369 -0.021900365 152 126 134
-0.033559185 -0.04263865 -0.025008703 144 125 148
-0.03187961 -0.042513613 -0.028116405 137 120 130
-0.03011147 -0.042513613 -0.028223949 133 116 130
-0.028343333 -0.042513613 -0.028331496 130 115 123
-0.02668452 -0.04238857 -0.031437933 130 115 125
-0.024921583 -0.04238857 -0.03154516 130 111 114
-0.023278408 -0.04226353 -0.03465065 130 107 114
-0.02152067 -0.04226353 -0.034757566 131 107 104
-0.019632801 -0.04238857 -0.031866845 128 107 110
-0.017869862 -0.04238857 -0.031974073 125 107 103
-0.016247455 -0.04226353 -0.035078302 124 107 111
-0.0144897485 -0.04226353 -0.03518521 124 107 106
-0.012882943 -0.042138487 -0.038288485 124 107 109
-0.011130406 -0.042138487 -0.03839508 124 104 107
-0.009377868 -0.042138487 -0.03850168 122 102 107
-0.007625329 -0.042138487 -0.03860827 121 102 106
-0.005872825 -0.042138487 -0.038714867 119 102 106
-0.004297221 -0.04201345 -0.041816242 118 101 101
-0.002549884 -0.04201345 -0.041922525 115 101 100
-6.1524496E-4 -0.042138487 -0.039034653 113 101 96
0.0013298617 -0.04226353 -0.03614742 111 102 97
0.0030875667 -0.04226353 -0.03625433 110 97 93
0.004845338 -0.04226353 -0.036361244 106 93 93
0.0066030435 -0.04226353 -0.036468152 103 88 86
0.008360748 -0.04226353 -0.03657506 99 83 85
0.01011852 -0.04226353 -0.036681976 95 80 79
0.0118762255 -0.04226353 -0.03678889 92 77 80
0.013633996 -0.04226353 -0.0368958 90 73 76
0.015391702 -0.04226353 -0.037002712 88 69 75
0.017388744 -0.04238857 -0.034118634 86 68 70
0.019151716 -0.04238857 -0.034225866 86 67 72
0.021164361 -0.042513613 -0.031342737 86 66 57
0.022932535 -0.042513613 -0.031450283 88 65 64
0.024960779 -0.04263865 -0.028568106 90 70 60
0.026734086 -0.04263865 -0.028675964 92 76 82
0.028778 -0.04276369 -0.025794739 95 96 94
0.030556507 -0.04276369 -0.025902914 120 117 104
0.03233508 -0.04276369 -0.026011093 145 116 128
-0.035332523 -0.04441523 -0.024900842 146 123 134
-0.033647712 -0.04428498 -0.028008861 129 121 136
-0.03187961 -0.04428498 -0.028116405 129 120 130
-0.03011147 -0.04428498 -0.028223949 118 114 125
-0.028343333 -0.04428498 -0.028331496 118 108 123
-0.02668452 -0.044154733 -0.031437933 124 107 122
-0.024921583 -0.044154733 -0.03154516 124 106 114
-0.023278408 -0.044024482 -0.03465065 110 103 107
-0.02152067 -0.044024482 -0.034757566 110 100 104
-0.019762931 -0.044024482 -0.034864474 120 102 101
-0.018005192 -0.044024482 -0.03497139 120 105 103
-0.016247455 -0.044024482 -0.035078302 114 106 105
-0.0144897485 -0.044024482 -0.03518521 114 107 106
-0.012732011 -0.044024482 -0.035292123 117 101 107
-0.011130406 -0.043894235 -0.03839508 117 95 107
-0.009377868 -0.043894235 -0.03850168 115 94 107
-0.007625329 -0.043894235 -0.03860827 115 94 106
-0.005872825 -0.043894235 -0.038714867 116 96 105
-0.0041202875 -0.043894235 -0.038821466 116 98 101
-0.002549884 -0.04376398 -0.041922525 107 97 97
-6.1524496E-4 -0.043894235 -0.039034653 107 97 96
0.0013298617 -0.044024482 -0.03614742 104 93 95
0.0030875667 -0.044024482 -0.03625433 104 90 93
0.004845338 -0.044024482 -0.036361244 98 85 91
0.0066030435 -0.044024482 -0.036468152 98 80 86
0.008360748 -0.044024482 -0.03657506 91 76 81
0.01011852 -0.044024482 -0.036681976 91 72 79
0.0118762255 -0.044024482 -0.03678889 85 69 78
0.013862935 -0.044154733 -0.03390418 85 67 76
0.01562584 -0.044154733 -0.034011405 77 63 74
0.017388744 -0.044154733 -0.034118634 77 60 70
0.019396255 -0.04428498 -0.031235194 81 59 67
0.021164361 -0.04428498 -0.031342737 81 58 57
0.023187473 -0.04441523 -0.028460247 80 57 47
0.024960779 -0.04441523 -0.028568106 80 56 60
0.026734086 -0.04441523 -0.028675964 94 67 74
0.02850746 -0.04441523 -0.028783828 94 79 94
0.030556507 -0.044545483 -0.025902914 138 101 115
0.03233508 -0.044545483 -0.026011093 138 123 128
-0.035332523 -0.046191867 -0.024900842 140 114 133
-0.033736244 -0.045920946 -0.03100902 130 106 134
-0.03187961 -0.046056405 -0.028116405 121 96 121
-0.03011147 -0.046056405 -0.028223949 113 87 117
-0.028343333 -0.046056405 -0.028331496 106 96 112
-0.02668452 -0.045920946 -0.031437933 112 106 118
-0.024921583 -0.045920946 -0.03154516 119 93 108
-0.023278408 -0.045785483 -0.03465065 104 81 105
-0.02152067 -0.045785483 -0.034757566 89 77 84
-0.019762931 -0.045785483 -0.034864474 102 73 83
-0.017869862 -0.045920946 -0.031974073 115 82 78
-0.016247455 -0.045785483 -0.035078302 110 91 98
-0.0144897485 -0.045785483 -0.03518521 105 89 93
-0.012732011 -0.045785483 -0.035292123 107 87 100
-0.010974273 -0.045785483 -0.035399035 110 87 94
-0.009377868 -0.045650024 -0.03850168 109 88 100
-0.007791863 -0.045514565 -0.04160369 109 89 91
-0.0060445587 -0.045514565 -0.041709963 111 91 97
-0.004297221 -0.045514565 -0.041816242 114 90 85
-0.002549884 -0.045514565 -0.041922525 108 89 89
-6.1524496E-4 -0.045650024 -0.039034653 102 85 79
0.0011373262 -0.045650024 -0.03914125 100 82 86
0.0030875667 -0.045785483 -0.03625433 98 76 77
0.004845338 -0.045785483 -0.036361244 95 71 84
0.00681118 -0.045920946 -0.033475265 93 69 72
0.008574085 -0.045920946 -0.033582494 90 67 74
0.0103370575 -0.045920946 -0.033689722 87 63 56
0.012099963 -0.045920946 -0.033796947 83 59 62
0.013862935 -0.045920946 -0.03390418 80 58 51
0.01562584 -0.045920946 -0.034011405 74 58 65
0.017628083 -0.046056405 -0.031127647 69 54 56
0.019396255 -0.046056405 -0.031235194 72 51 61
0.021164361 -0.046056405 -0.031342737 76 50 56
0.023187473 -0.046191867 -0.028460247 73 50 51
0.02522092 -0.046327326 -0.025578385 71 56 68
0.026734086 -0.046191867 -0.028675964 82 63 77
0.028778 -0.046327326 -0.025794739 93 78 91
0.030556507 -0.046327326 -0.025902914 112 94 108
0.03233508 -0.046327326 -0.026011093 131 99 97
-0.033736244 -0.047687106 -0.03100902 138 114 133
-0.03187961 -0.047827777 -0.028116405 138 104 121
-0.03011147 -0.047827777 -0.028223949 124 98 110
-0.028239202 -0.047968447 -0.025332285 124 93 112
-0.026465863 -0.047968447 -0.025440145 124 99 114
-0.024807055 -0.047827777 -0.028546583 124 106 108
-0.023158679 -0.047687106 -0.031652387 103 84 103
-0.021395741 -0.047687106 -0.031759616 103 63 84
-0.019762931 -0.04754644 -0.034864474 120 71 65
-0.018005192 -0.04754644 -0.03497139 120 79 78
-0.016247455 -0.04754644 -0.035078302 122 84 92
-0.0144897485 -0.04754644 -0.03518521 122 89 93
-0.012732011 -0.04754644 -0.035292123 124 88 94
-0.011130406 -0.04740577 -0.03839508 124 87 94
-0.009377868 -0.04740577 -0.03850168 119 88 94
-0.007791863 -0.047265097 -0.04160369 119 89 91
-0.005872825 -0.04740577 -0.038714867 123 89 89
-0.0041202875 -0.04740577 -0.038821466 123 90 85
-0.002549884 -0.047265097 -0.041922525 116 86 81
-6.1524496E-4 -0.04740577 -0.039034653 116 83 79
0.0013298617 -0.04754644 -0.03614742 116 80 77
0.0030875667 -0.04754644 -0.03625433 116 78 77
0.005048275 -0.047687106 -0.03336804 110 75 78
0.00681118 -0.047687106 -0.033475265 110 73 72
0.008574085 -0.047687106 -0.033582494 104 69 67
0.010555595 -0.047827777 -0.030697472 104 65 56
0.0123237 -0.047827777 -0.030805014 100 62 46
0.014091874 -0.047827777 -0.030912561 100 59 51
0.015859976 -0.047827777 -0.031020103 93 58 57
0.017867422 -0.047968447 -0.028136661 93 58 56
0.019640796 -0.047968447 -0.028244523 97 56 56
0.021414101 -0.047968447 -0.028352384 97 55 56
0.023442416 -0.048109118 -0.025470207 94 57 56
0.02522092 -0.048109118 -0.025578385 94 60 68
0.026999425 -0.048109118 -0.02568656 104 69 81
0.028778 -0.048109118 -0.025794739 104 78 91
0.030556507 -0.048109118 -0.025902914 137 87 101
0.03233508 -0.048109118 -0.026011093 137 96 97
-0.03187961 -0.0495992 -0.028116405 155 136 165
-0.03011147 -0.0495992 -0.028223949 148 132 137
-0.028239202 -0.049745083 -0.025332285 142 128 157
-0.026465863 -0.049745083 -0.025440145 135 124 132
-0.024807055 -0.0495992 -0.028546583 129 107 141
-0.023158679 -0.04945332 -0.031652387 123 91 117
-0.021395741 -0.04945332 -0.031759616 117 94 130
-0.018005192 -0.049307443 -0.03497139 126 108 138
-0.016387986 -0.049161565 -0.038075294 132 119 120
-0.0144897485 -0.049307443 -0.03518521 139 119 145
-0.012732011 -0.049307443 -0.035292123 139 119 118
-0.010974273 -0.049307443 -0.035399035 139 119 140
-0.009377868 -0.049161565 -0.03850168 134 119 116
-0.007791863 -0.049015682 -0.04160369 130 119 135
-0.005872825 -0.049161565 -0.038714867 131 120 111
-0.0041202875 -0.049161565 -0.038821466 132 119 133
-0.0023677493 -0.049161565 -0.038928058 131 119 107
-6.1524496E-4 -0.049161565 -0.039034653 131 115 136
0.0011373262 -0.049161565 -0.03914125 133 112 107
0.0030875667 -0.049307443 -0.03625433 135 113 133
0.004845338 -0.049307443 -0.036361244 131 114 103
0.00681118 -0.04945332 -0.033475265 127 111 123
0.008574085 -0.04945332 -0.033582494 124 108 92
0.010555595 -0.0495992 -0.030697472 122 105 125
0.0123237 -0.0495992 -0.030805014 121 103 89
0.014091874 -0.0495992 -0.030912561 120 101 132
0.015859976 -0.0495992 -0.031020103 119 99 94
0.017628083 -0.0495992 -0.031127647 118 100 133
0.019396255 -0.0495992 -0.031235194 118 101 95
0.021414101 -0.049745083 -0.028352384 119 97 130
0.023442416 -0.04989096 -0.025470207 118 93 90
0.02522092 -0.04989096 -0.025578385 117 101 127
0.026999425 -0.04989096 -0.02568656 116 109 105
0.028778 -0.04989096 -0.025794739 116 114 127
-0.016387986 -0.050917305 -0.038075294 143 133 148
-0.0144897485 -0.051068395 -0.03518521 143 140 145
-0.012732011 -0.051068395 -0.035292123 140 132 143
-0.010974273 -0.051068395 -0.035399035 140 125 140
-0.0041202875 -0.050917305 -0.038821466 136 127 133
-0.0023677493 -0.050917305 -0.038928058 133 129 134
-6.1524496E-4 -0.050917305 -0.039034653 133 131 136
0.0013298617 -0.051068395 -0.03614742 134 126 138
0.0030875667 -0.051068395 -0.03625433 134 121 133
0.004845338 -0.051068395 -0.036361244 129 120 129
0.00681118 -0.051219486 -0.033475265 129 119 123
0.008574085 -0.051219486 -0.033582494 125 113 118
0.014091874 -0.051370576 -0.030912561 122 116 132
0.01562584 -0.051219486 -0.034011405 121 110 131
0.017628083 -0.051370576 -0.031127647 121 104 133
0.019396255 -0.051370576 -0.031235194 124 113 135
0.021414101 -0.051521663 -0.028352384 124 122 130
0.023442416 -0.051672757 -0.025470207 118 120 125
0.02522092 -0.051672757 -0.025578385 118 118 127
0.026999425 -0.051672757 -0.02568656 118 119 130
0.028778 -0.051672757 -0.025794739 118 120 127
0.0013298617 -0.0528294 -0.03614742 134 121 123
0.0030875667 -0.0528294 -0.03625433 133 120 107
0.01562584 -0.052985698 -0.034011405 124 109 112
0.017628083 -0.053142 -0.031127647 124 105 93
0.019396255 -0.053142 -0.031235194 126 102 114
0.021164361 -0.053142 -0.031342737 129 103 89
0.023187473 -0.0532983 -0.028460247 124 104 105
0.02522092 -0.053454597 -0.025578385 120 100 83
0.026734086 -0.0532983 -0.028675964 120 97 105
0.02850746 -0.0532983 -0.028783828 120 101 81
0.017628083 -0.05491342 -0.031127647 77 54 93
0.019396255 -0.05491342 -0.031235194 72 49 93
0.021164361 -0.05491342 -0.031342737 72 45 89
0.023187473 -0.055074934 -0.028460247 72 42 86
0.02522092 -0.055236444 -0.025578385 72 40 83
0.026999425 -0.055236444 -0.02568656 72 41 81
0.028778 -0.055236444 -0.025794739 72 43 81
0.019396255 -0.056684796 -0.031235194 22 4 57
0.021164361 -0.056684796 -0.031342737 15 5 21
0.023187473 -0.056851517 -0.028460247 20 7 53
0.025567776 -0.057240527 -0.021592088 25 5 15
0.027353216 -0.057240527 -0.021700686 25 3 45
0.029138723 -0.057240527 -0.021809287 25 6 21
0.030556507 -0.057018235 -0.025902914 23 9 58
0.03233508 -0.057018235 -0.026011093 22 6 31
0.021164361 -0.05845622 -0.031342737 32 19 21
0.023187473 -0.05862815 -0.028460247 36 19 21
0.025567776 -0.05902932 -0.021592088 36 19 15
0.027353216 -0.05902932 -0.021700686 35 19 9
0.029138723 -0.05902932 -0.021809287 35 19 21
0.030556507 -0.05880008 -0.025902914 40 20 34
0.03233508 -0.05880008 -0.026011093 40 21 31
-0.022542167 0.028092317 0.04130937 161 141 147
-0.02604697 0.028008956 0.041063234 164 142 135
-0.026851173 0.028008956 0.039508324 167 144 148
-0.02765536 0.028008956 0.037953444 168 147 130
-0.02845956 0.028008956 0.036398537 169 146 146
-0.010649948 0.026492849 0.05124212 149 149 161
-0.011461315 0.026492849 0.049673356 156 147 166
-0.014987658 0.0264147 0.049385566 156 145 162
-0.015796646 0.0264147 0.0478214 151 143 159
-0.019315803 0.026336549 0.047547493 151 141 156
-0.020122398 0.026336549 0.045987953 149 140 154
-0.020928977 0.026336549 0.04442845 149 140 148
-0.021735573 0.026336549 0.042868912 153 139 142
-0.022542167 0.026336549 0.04130937 153 139 147
-0.023348764 0.026336549 0.039749835 155 140 153
-0.026851173 0.0262584 0.039508324 155 141 148
-0.02765536 0.0262584 0.037953444 158 142 143
-0.02845956 0.0262584 0.036398537 158 143 146
-0.02657513 0.026336549 0.03351172 153 140 149
-0.030067965 0.0262584 0.033288714 153 138 143
-0.030872166 0.0262584 0.031733807 151 137 137
-0.031676352 0.0262584 0.030178927 151 136 127
-0.03426659 0.0262063 0.029524297 141 129 117
-0.035069194 0.0262063 0.027972473 141 123 117
-0.035871804 0.0262063 0.02642065 138 118 117
-0.036674406 0.0262063 0.024868824 138 114 112
-0.04014648 0.026128149 0.024685958 139 111 108
-0.038279604 0.0262063 0.021765206 139 108 108
-0.037305746 0.0262584 0.01929459 132 109 108
-0.035447627 0.026336549 0.016356898 132 110 106
-0.03359433 0.0264147 0.013409891 127 104 104
-0.034403306 0.0264147 0.011845756 127 99 104
-0.03521231 0.0264147 0.010281562 124 100 104
-0.033368554 0.026492849 0.0073161037 124 102 100
-0.034179915 0.026492849 0.005747341 121 101 97
-0.034991313 0.026492849 0.0041785184 121 100 97
0.007976078 0.025115674 0.052426793 149 121 120
0.0044226283 0.025042735 0.052086584 145 120 111
-0.0027619514 0.024872541 0.053432763 142 120 115
-0.003578121 0.024872541 0.051854715 140 120 108
-0.004394289 0.024872541 0.050276663 142 120 135
-0.010649948 0.02472666 0.05124212 144 119 115
-0.011461315 0.02472666 0.049673356 145 118 141
-0.014987658 0.024653722 0.049385566 146 116 118
-0.015796646 0.024653722 0.0478214 147 115 139
-0.019315803 0.024580782 0.047547493 148 117 120
-0.020122398 0.024580782 0.045987953 147 120 137
-0.020928977 0.024580782 0.04442845 146 118 124
-0.021735573 0.024580782 0.042868912 145 117 135
-0.022542167 0.024580782 0.04130937 145 115 125
-0.023348764 0.024580782 0.039749835 144 113 138
-0.026851173 0.024507841 0.039508324 143 113 126
-0.02765536 0.024507841 0.037953444 145 113 136
-0.02845956 0.024507841 0.036398537 147 112 129
-0.029263763 0.024507841 0.034843624 146 112 139
-0.030067965 0.024507841 0.033288714 146 112 125
-0.030872166 0.024507841 0.031733807 143 113 129
-0.031676352 0.024507841 0.030178927 140 109 117
-0.03426659 0.024459215 0.029524297 138 106 115
-0.035069194 0.024459215 0.027972473 137 104 110
-0.035871804 0.024459215 0.02642065 135 103 112
-0.036674406 0.024459215 0.024868824 133 104 104
-0.042815965 0.024313336 0.026054889 132 105 104
-0.036501545 0.024507841 0.020849498 131 104 102
-0.03464105 0.024580782 0.017916407 129 104 106
-0.035447627 0.024580782 0.016356898 128 98 104
-0.03359433 0.024653722 0.013409891 125 92 103
-0.034403306 0.024653722 0.011845756 123 93 102
-0.03521231 0.024653722 0.010281562 121 95 102
-0.033368554 0.02472666 0.0073161037 119 93 99
-0.034179915 0.02472666 0.005747341 116 91 97
-0.034991313 0.02472666 0.0041785184 114 89 92
-0.03580268 0.02472666 0.0026097556 111 88 93
-0.03661408 0.02472666 0.0010409337 109 88 85
-0.037425447 0.02472666 -5.2782916E-4 108 89 87
-0.032960076 0.024872541 -0.004954771 108 80 82
-0.03377626 0.024872541 -0.00653285 101 72 88
0.007976078 0.0233217 0.052426793 142 119 119
0.0044226283 0.02325397 0.052086584 142 118 111
0.003600874 0.02325397 0.05049774 138 115 104
-8.5359E-4 0.023163663 0.050592218 138 113 108
-0.004394289 0.023095934 0.050276663 141 111 113
-0.0052104588 0.023095934 0.048698615 141 110 115
-0.008743963 0.023028202 0.04839698 144 110 117
-0.014987658 0.022892741 0.049385566 144 111 118
-0.015796646 0.022892741 0.0478214 146 113 119
-0.019315803 0.022825012 0.047547493 146 115 120
-0.020122398 0.022825012 0.045987953 145 116 121
-0.020928977 0.022825012 0.04442845 145 117 124
-0.021735573 0.022825012 0.042868912 140 115 128
-0.022542167 0.022825012 0.04130937 140 113 125
-0.023348764 0.022825012 0.039749835 143 112 123
-0.026851173 0.022757282 0.039508324 143 111 126
-0.02765536 0.022757282 0.037953444 146 113 130
-0.02845956 0.022757282 0.036398537 146 115 129
-0.029263763 0.022757282 0.034843624 144 114 129
-0.030067965 0.022757282 0.033288714 144 113 125
-0.030872166 0.022757282 0.031733807 139 110 121
-0.033463985 0.02271213 0.031076122 139 108 117
-0.03426659 0.02271213 0.029524297 135 105 113
-0.035069194 0.02271213 0.027972473 135 103 110
-0.034088958 0.022757282 0.025514198 132 101 108
-0.03489316 0.022757282 0.02395929 132 100 104
-0.035697345 0.022757282 0.02240441 130 101 100
-0.036501545 0.022757282 0.020849498 130 103 102
-0.03464105 0.022825012 0.017916407 126 100 105
-0.035447627 0.022825012 0.016356898 126 98 104
-0.03359433 0.022892741 0.013409891 122 95 103
-0.034403306 0.022892741 0.011845756 122 93 102
-0.03521231 0.022892741 0.010281562 117 92 101
-0.03602128 0.022892741 0.008717426 117 92 99
-0.034179915 0.022960473 0.005747341 112 89 97
-0.034991313 0.022960473 0.0041785184 112 87 92
-0.03580268 0.022960473 0.0026097556 108 86 88
-0.03661408 0.022960473 0.0010409337 108 85 85
-0.034784682 0.023028202 -0.0019522905 106 82 82
-0.035598442 0.023028202 -0.0035256825 106 79 82
-0.03377626 0.023095934 -0.00653285 96 73 82
-0.034592416 0.023095934 -0.008110869 96 67 85
0.0044226283 0.021465205 0.052086584 139 117 114
0.003600874 0.021465205 0.05049774 138 114 109
-8.5359E-4 0.021381846 0.050592218 137 114 116
-0.004394289 0.021319324 0.050276663 138 115 115
-0.0052104588 0.021319324 0.048698615 139 116 120
-0.008743963 0.021256806 0.04839698 140 117 119
-0.012272698 0.021194285 0.048104562 142 118 122
-0.015796646 0.021131765 0.0478214 143 120 120
-0.019315803 0.021069244 0.047547493 145 120 124
-0.020122398 0.021069244 0.045987953 144 120 123
-0.020928977 0.021069244 0.04442845 144 118 123
-0.021735573 0.021069244 0.042868912 140 117 124
-0.022542167 0.021069244 0.04130937 136 117 123
-0.02604697 0.021006726 0.041063234 140 117 124
-0.026851173 0.021006726 0.039508324 144 118 126
-0.02765536 0.021006726 0.037953444 145 119 128
-0.02845956 0.021006726 0.036398537 146 118 124
-0.03105618 0.020965043 0.03573157 144 118 125
-0.031858787 0.020965043 0.03417974 143 116 120
-0.032661393 0.020965043 0.032627914 140 114 120
-0.033463985 0.020965043 0.031076122 138 111 117
-0.03426659 0.020965043 0.029524297 136 108 114
-0.035069194 0.020965043 0.027972473 134 106 112
-0.035871804 0.020965043 0.02642065 132 104 108
-0.03489316 0.021006726 0.02395929 131 103 107
-0.035697345 0.021006726 0.02240441 130 103 102
-0.036501545 0.021006726 0.020849498 129 102 109
-0.037305746 0.021006726 0.01929459 127 102 109
-0.035447627 0.021069244 0.016356898 125 99 107
-0.03625424 0.021069244 0.014797333 123 97 102
-0.034403306 0.021131765 0.011845756 122 94 100
-0.03521231 0.021131765 0.010281562 119 92 99
-0.03602128 0.021131765 0.008717426 116 91 94
-0.034179915 0.021194285 0.005747341 113 90 94
-0.034991313 0.021194285 0.0041785184 110 87 91
-0.03580268 0.021194285 0.0026097556 109 85 89
-0.03661408 0.021194285 0.0010409337 108 84 87
-0.034784682 0.021256806 -0.0019522905 106 83 83
-0.035598442 0.021256806 -0.0035256825 105 79 81
-0.03377626 0.021319324 -0.00653285 101 75 80
-0.034592416 0.021319324 -0.008110869 98 74 80
-0.032777414 0.021381846 -0.011131918 92 73 85
-0.033595957 0.021381846 -0.012714563 86 75 86
0.010707791 0.01979106 0.051178183 139 117 114
0.007151947 0.01973375 0.050833352 139 117 114
0.003600874 0.01967644 0.05049774 133 116 115
-8.5359E-4 0.019600026 0.050592218 133 116 116
-0.0016721516 0.019600026 0.049009543 138 116 118
-0.0052104588 0.019542716 0.048698615 138 116 120
-0.008743963 0.019485407 0.04839698 139 118 122
-0.012272698 0.019428097 0.048104562 139 120 122
-0.015796646 0.019370787 0.0478214 144 119 122
-0.019315803 0.019313477 0.047547493 144 119 124
-0.020122398 0.019313477 0.045987953 146 118 126
-0.020928977 0.019313477 0.04442845 146 118 123
-0.021735573 0.019313477 0.042868912 138 118 121
-0.022542167 0.019313477 0.04130937 138 119 123
-0.023348764 0.019313477 0.039749835 144 119 126
-0.026851173 0.019256167 0.039508324 144 120 126
-0.02765536 0.019256167 0.037953444 147 120 126
-0.02845956 0.019256167 0.036398537 147 120 124
-0.03105618 0.01921796 0.03573157 142 116 122
-0.030067965 0.019256167 0.033288714 142 113 120
-0.032661393 0.01921796 0.032627914 136 112 119
-0.031676352 0.019256167 0.030178927 136 111 117
-0.03426659 0.01921796 0.029524297 133 107 115
-0.033284757 0.019256167 0.027069107 133 104 112
-0.034088958 0.019256167 0.025514198 129 105 109
-0.03489316 0.019256167 0.02395929 129 106 107
-0.035697345 0.019256167 0.02240441 128 104 105
-0.033834454 0.019313477 0.019475944 128 103 109
-0.037305746 0.019256167 0.01929459 125 102 113
-0.035447627 0.019313477 0.016356898 125 101 107
-0.03359433 0.019370787 0.013409891 121 97 102
-0.034403306 0.019370787 0.011845756 121 93 100
-0.03521231 0.019370787 0.010281562 116 92 98
-0.03602128 0.019370787 0.008717426 116 92 94
-0.034179915 0.019428097 0.005747341 110 90 91
-0.034991313 0.019428097 0.0041785184 110 89 91
-0.03580268 0.019428097 0.0026097556 107 84 91
-0.033970926 0.019485407 -3.789015E-4 107 80 87
-0.034784682 0.019485407 -0.0019522905 103 78 84
-0.032960076 0.019542716 -0.004954771 103 76 81
-0.03377626 0.019542716 -0.00653285 97 74 78
-0.031958833 0.019600026 -0.009549214 97 72 80
-0.032777414 0.019600026 -0.011131918 90 72 82
-0.030090896 0.01967644 -0.014644697 90 73 86
-0.030912636 0.01967644 -0.016233513 115 81 90
0.010707791 0.017991874 0.051178183 141 116 115
0.007151947 0.017939776 0.050833352 140 115 119
0.003600874 0.017887674 0.05049774 135 115 118
-8.5359E-4 0.017818209 0.050592218 130 116 120
-0.0016721516 0.017818209 0.049009543 133 117 118
-0.0052104588 0.017766107 0.048698615 137 118 119
-0.006026611 0.017766107 0.047120597 137 120 121
-0.009557739 0.017714009 0.046823554 137 118 123
-0.01308408 0.017661907 0.046535768 140 117 124
-0.016605632 0.017609809 0.04625723 143 118 131
-0.020122398 0.017557709 0.045987953 145 119 131
-0.020928977 0.017557709 0.04442845 148 118 132
-0.021735573 0.017557709 0.042868912 144 117 124
-0.022542167 0.017557709 0.04130937 140 118 129
-0.023348764 0.017557709 0.039749835 142 119 128
-0.024155358 0.017557709 0.0381903 144 120 127
-0.024961937 0.017557709 0.03663079 146 121 125
-0.02845956 0.017505608 0.036398537 149 119 123
-0.029263763 0.017505608 0.034843624 145 118 122
-0.030067965 0.017505608 0.033288714 142 117 119
-0.030872166 0.017505608 0.031733807 138 117 118
-0.031676352 0.017505608 0.030178927 135 113 116
-0.032480553 0.017505608 0.028624015 133 109 115
-0.033284757 0.017505608 0.027069107 132 107 112
-0.034088958 0.017505608 0.025514198 130 106 109
-0.03489316 0.017505608 0.02395929 128 106 108
-0.035697345 0.017505608 0.02240441 128 106 105
-0.033834454 0.017557709 0.019475944 128 104 104
-0.03464105 0.017557709 0.017916407 127 102 107
-0.035447627 0.017557709 0.016356898 126 99 100
-0.03359433 0.017609809 0.013409891 123 96 100
-0.034403306 0.017609809 0.011845756 121 94 98
-0.03521231 0.017609809 0.010281562 118 93 97
-0.03602128 0.017609809 0.008717426 116 93 92
-0.034179915 0.017661907 0.005747341 113 93 89
-0.034991313 0.017661907 0.0041785184 110 90 89
-0.03580268 0.017661907 0.0026097556 108 87 90
-0.033970926 0.017714009 -3.789015E-4 106 82 86
-0.034784682 0.017714009 -0.0019522905 103 78 83
-0.032960076 0.017766107 -0.004954771 101 75 74
-0.03377626 0.017766107 -0.00653285 99 73 71
-0.031958833 0.017818209 -0.009549214 97 73 71
-0.02926916 0.017887674 -0.0130558815 95 74 80
-0.030090896 0.017887674 -0.014644697 94 77 83
-0.030912636 0.017887674 -0.016233513 104 81 89
0.010707791 0.01619269 0.051178183 138 110 116
0.007151947 0.0161458 0.050833352 138 110 119
0.003600874 0.01609891 0.05049774 133 113 122
-8.5359E-4 0.01603639 0.050592218 133 116 120
-0.0016721516 0.01603639 0.049009543 138 117 118
-0.0052104588 0.0159895 0.048698615 138 119 119
-0.006026611 0.0159895 0.047120597 141 118 121
-0.009557739 0.015942609 0.046823554 141 118 123
-0.01308408 0.015895719 0.046535768 143 118 126
-0.016605632 0.01584883 0.04625723 143 118 131
-0.020122398 0.01580194 0.045987953 146 120 136
-0.020928977 0.01580194 0.04442845 146 122 132
-0.021735573 0.01580194 0.042868912 138 119 128
-0.022542167 0.01580194 0.04130937 138 116 129
-0.023348764 0.01580194 0.039749835 143 117 131
-0.026851173 0.01575505 0.039508324 143 119 127
-0.02765536 0.01575505 0.037953444 146 119 124
-0.02845956 0.01575505 0.036398537 146 119 123
-0.029263763 0.01575505 0.034843624 140 118 122
-0.030067965 0.01575505 0.033288714 140 118 119
-0.032661393 0.015723791 0.032627914 135 115 117
-0.031676352 0.01575505 0.030178927 135 112 116
-0.03426659 0.015723791 0.029524297 131 110 115
-0.035069194 0.015723791 0.027972473 131 108 112
-0.034088958 0.01575505 0.025514198 126 105 110
-0.036674406 0.015723791 0.024868824 126 103 108
-0.035697345 0.01575505 0.02240441 131 103 106
-0.036501545 0.01575505 0.020849498 131 104 104
-0.037305746 0.01575505 0.01929459 126 101 102
-0.035447627 0.01580194 0.016356898 126 99 100
-0.03359433 0.01584883 0.013409891 120 97 99
-0.034403306 0.01584883 0.011845756 120 96 98
-0.032557186 0.015895719 0.008884866 114 95 97
-0.033368554 0.015895719 0.0073161037 114 94 92
-0.034179915 0.015895719 0.005747341 110 92 88
-0.034991313 0.015895719 0.0041785184 110 91 89
-0.03580268 0.015895719 0.0026097556 105 87 90
-0.033970926 0.015942609 -3.789015E-4 105 83 86
-0.034784682 0.015942609 -0.0019522905 102 80 83
-0.032960076 0.0159895 -0.004954771 102 77 74
-0.03377626 0.0159895 -0.00653285 96 77 65
-0.031958833 0.01603639 -0.009549214 96 78 71
-0.02926916 0.01609891 -0.0130558815 94 77 78
-0.030090896 0.01609891 -0.014644697 94 76 83
-0.028286235 0.0161458 -0.017685741 114 82 89
-0.029110398 0.0161458 -0.019279245 114 88 91
0.010707791 0.014393505 0.051178183 136 105 113
0.007151947 0.014351824 0.050833352 136 107 114
0.003600874 0.014310146 0.05049774 136 110 120
-8.5359E-4 0.014254572 0.050592218 137 113 118
-0.0016721516 0.014254572 0.049009543 138 117 118
-0.0052104588 0.014212891 0.048698615 139 117 117
-0.006026611 0.014212891 0.047120597 142 118 118
-0.009557739 0.014171211 0.046823554 145 118 119
-0.01308408 0.014129532 0.046535768 144 119 125
-0.016605632 0.014087851 0.04625723 143 119 124
-0.017414624 0.014087851 0.044693068 143 119 130
-0.020928977 0.014046171 0.04442845 144 117 123
-0.021735573 0.014046171 0.042868912 140 116 125
-0.022542167 0.014046171 0.04130937 137 117 125
-0.023348764 0.014046171 0.039749835 140 118 129
-0.026851173 0.014004492 0.039508324 143 119 126
-0.02765536 0.014004492 0.037953444 143 121 124
-0.030253574 0.013976704 0.03728339 144 120 121
-0.03105618 0.013976704 0.03573157 141 120 120
-0.031858787 0.013976704 0.03417974 138 117 119
-0.032661393 0.013976704 0.032627914 136 115 119
-0.031676352 0.014004492 0.030178927 135 112 119
-0.03426659 0.013976704 0.029524297 133 109 116
-0.035069194 0.013976704 0.027972473 131 107 115
-0.034088958 0.014004492 0.025514198 128 106 112
-0.036674406 0.013976704 0.024868824 125 105 112
-0.035697345 0.014004492 0.02240441 129 104 108
-0.036501545 0.014004492 0.020849498 134 103 106
-0.037305746 0.014004492 0.01929459 130 102 102
-0.035447627 0.014046171 0.016356898 127 100 103
-0.03359433 0.014087851 0.013409891 123 98 102
-0.034403306 0.014087851 0.011845756 120 98 98
-0.032557186 0.014129532 0.008884866 116 98 94
-0.033368554 0.014129532 0.0073161037 113 95 91
-0.034179915 0.014129532 0.005747341 111 93 89
-0.034991313 0.014129532 0.0041785184 110 90 88
-0.03580268 0.014129532 0.0026097556 107 87 87
-0.033970926 0.014171211 -3.789015E-4 105 84 86
-0.034784682 0.014171211 -0.0019522905 104 81 85
-0.035598442 0.014171211 -0.0035256825 103 79 83
-0.03377626 0.014212891 -0.00653285 99 78 71
-0.031958833 0.014254572 -0.009549214 96 76 80
-0.02926916 0.014310146 -0.0130558815 95 74 80
-0.027462104 0.014351824 -0.016092297 95 76 86
-0.028286235 0.014351824 -0.017685741 104 79 90
-0.02648639 0.014393505 -0.020736102 114 94 93
-0.027312916 0.014393505 -0.022334171 121 109 94
0.010707791 0.012594295 0.051178183 136 103 110
0.007151947 0.012557824 0.050833352 136 106 114
0.003600874 0.0125213545 0.05049774 137 110 118
-8.5359E-4 0.012472727 0.050592218 137 114 118
-0.0016721516 0.012472727 0.049009543 138 115 119
-0.0052104588 0.012436259 0.048698615 138 117 117
-0.006026611 0.012436259 0.047120597 143 118 115
-0.009557739 0.012399788 0.046823554 143 119 119
-0.01308408 0.012363318 0.046535768 142 119 124
-0.016605632 0.012326848 0.04625723 142 120 124
-0.017414624 0.012326848 0.044693068 148 119 125
-0.020928977 0.012290377 0.04442845 148 118 123
-0.021735573 0.012290377 0.042868912 140 117 122
-0.022542167 0.012290377 0.04130937 140 117 125
-0.023348764 0.012290377 0.039749835 143 119 128
-0.026851173 0.012253908 0.039508324 143 122 126
-0.02765536 0.012253908 0.037953444 143 123 125
-0.030253574 0.012229595 0.03728339 143 124 121
-0.03105618 0.012229595 0.03573157 138 121 118
-0.031858787 0.012229595 0.03417974 138 118 119
-0.032661393 0.012229595 0.032627914 136 114 121
-0.033463985 0.012229595 0.031076122 136 110 119
-0.03426659 0.012229595 0.029524297 131 108 117
-0.035069194 0.012229595 0.027972473 131 106 115
-0.034088958 0.012253908 0.025514198 127 105 114
-0.036674406 0.012229595 0.024868824 127 104 112
-0.035697345 0.012253908 0.02240441 133 103 110
-0.036501545 0.012253908 0.020849498 133 103 106
-0.037305746 0.012253908 0.01929459 125 102 102
-0.035447627 0.012290377 0.016356898 125 101 103
-0.03359433 0.012326848 0.013409891 120 98 105
-0.034403306 0.012326848 0.011845756 120 96 98
-0.032557186 0.012363318 0.008884866 115 95 92
-0.033368554 0.012363318 0.0073161037 115 94 91
-0.034179915 0.012363318 0.005747341 111 92 91
-0.034991313 0.012363318 0.0041785184 111 91 88
-0.03580268 0.012363318 0.0026097556 106 87 85
-0.03661408 0.012363318 0.0010409337 106 84 86
-0.034784682 0.012399788 -0.0019522905 102 81 88
-0.035598442 0.012399788 -0.0035256825 102 79 83
-0.03377626 0.012436259 -0.00653285 97 79 78
-0.031958833 0.012472727 -0.009549214 97 79 80
-0.02926916 0.0125213545 -0.0130558815 89 78 82
-0.027462104 0.012557824 -0.016092297 89 78 86
-0.028286235 0.012557824 -0.017685741 111 84 91
-0.02648639 0.012594295 -0.020736102 111 90 93
-0.027312916 0.012594295 -0.022334171 126 97 95
0.010707791 0.01079511 0.051178183 135 103 108
0.007151947 0.010763849 0.050833352 136 106 112
0.003600874 0.010732589 0.05049774 136 109 118
-8.5359E-4 0.01069091 0.050592218 137 111 119
-0.0016721516 0.01069091 0.049009543 137 113 120
-0.0052104588 0.01065965 0.048698615 138 116 122
-0.006026611 0.01065965 0.047120597 139 119 119
-0.009557739 0.010628389 0.046823554 141 120 125
-0.01308408 0.01059713 0.046535768 141 121 125
-0.016605632 0.0105658695 0.04625723 142 120 127
-0.017414624 0.0105658695 0.044693068 147 120 126
-0.020928977 0.01053461 0.04442845 152 118 126
-0.021735573 0.01053461 0.042868912 147 116 124
-0.022542167 0.01053461 0.04130937 143 117 125
-0.023348764 0.01053461 0.039749835 143 118 126
-0.024155358 0.01053461 0.0381903 143 120 125
-0.02765536 0.01050335 0.037953444 143 123 125
-0.02845956 0.01050335 0.036398537 143 123 125
-0.029263763 0.01050335 0.034843624 140 123 121
-0.030067965 0.01050335 0.033288714 138 119 122
-0.032661393 0.01048251 0.032627914 138 116 121
-0.033463985 0.01048251 0.031076122 138 112 120
-0.03426659 0.01048251 0.029524297 135 108 118
-0.035069194 0.01048251 0.027972473 132 106 115
-0.035871804 0.01048251 0.02642065 131 105 112
-0.036674406 0.01048251 0.024868824 130 105 109
-0.037476998 0.01048251 0.02331703 131 105 108
-0.036501545 0.01050335 0.020849498 132 104 106
-0.037305746 0.01050335 0.01929459 128 104 104
-0.035447627 0.01053461 0.016356898 124 101 103
-0.03359433 0.0105658695 0.013409891 122 98 102
-0.034403306 0.0105658695 0.011845756 121 95 98
-0.03521231 0.0105658695 0.010281562 119 93 94
-0.03602128 0.0105658695 0.008717426 117 92 94
-0.034179915 0.01059713 0.005747341 115 91 91
-0.034991313 0.01059713 0.0041785184 113 90 89
-0.03580268 0.01059713 0.0026097556 110 89 86
-0.033970926 0.010628389 -3.789015E-4 108 84 85
-0.034784682 0.010628389 -0.0019522905 104 79 86
-0.035598442 0.010628389 -0.0035256825 101 79 82
-0.03377626 0.01065965 -0.00653285 99 80 79
-0.028447391 0.010732589 -0.011467005 98 77 76
-0.02926916 0.010732589 -0.0130558815 90 74 76
-0.027462104 0.010763849 -0.016092297 83 77 79
-0.028286235 0.010763849 -0.017685741 96 81 89
-0.029110398 0.010763849 -0.019279245 109 93 89
-0.02993453 0.010763849 -0.020872688 117 105 93
0.010707791 0.008995925 0.051178183 136 107 107
0.009881266 0.008995925 0.049580112 136 109 112
0.003600874 0.008943825 0.05049774 138 110 118
-8.5359E-4 0.008909091 0.050592218 138 112 119
-0.0016721516 0.008909091 0.049009543 139 116 121
-0.0052104588 0.008883041 0.048698615 139 120 122
-0.008743963 0.008856991 0.04839698 141 120 123
-0.009557739 0.008856991 0.046823554 141 121 125
-0.01308408 0.008830941 0.046535768 141 119 127
-0.016605632 0.008804891 0.04625723 141 118 127
-0.017414624 0.008804891 0.044693068 148 116 127
-0.020928977 0.008778841 0.04442845 148 115 126
-0.021735573 0.008778841 0.042868912 141 115 126
-0.022542167 0.008778841 0.04130937 141 115 125
-0.023348764 0.008778841 0.039749835 143 117 124
-0.024155358 0.008778841 0.0381903 143 120 125
-0.02765536 0.008752791 0.037953444 145 121 126
-0.02845956 0.008752791 0.036398537 145 122 125
-0.029263763 0.008752791 0.034843624 139 121 124
-0.030067965 0.008752791 0.033288714 139 120 122
-0.032661393 0.008735425 0.032627914 136 115 121
-0.033463985 0.008735425 0.031076122 136 111 120
-0.03426659 0.008735425 0.029524297 133 108 119
-0.035069194 0.008735425 0.027972473 133 106 115
-0.035871804 0.008735425 0.02642065 129 106 111
-0.036674406 0.008735425 0.024868824 129 106 109
-0.035697345 0.008752791 0.02240441 133 106 107
-0.038279604 0.008735425 0.021765206 133 107 106
-0.037305746 0.008752791 0.01929459 124 105 106
-0.035447627 0.008778841 0.016356898 124 103 103
-0.03359433 0.008804891 0.013409891 121 99 100
-0.034403306 0.008804891 0.011845756 121 95 98
-0.03521231 0.008804891 0.010281562 118 92 97
-0.03602128 0.008804891 0.008717426 118 90 94
-0.036830254 0.008804891 0.0071532917 114 90 92
-0.034991313 0.008830941 0.0041785184 114 90 89
-0.03580268 0.008830941 0.0026097556 108 86 87
-0.03661408 0.008830941 0.0010409337 108 82 85
-0.034784682 0.008856991 -0.0019522905 101 81 84
-0.035598442 0.008856991 -0.0035256825 101 80 82
-0.03377626 0.008883041 -0.00653285 97 79 81
-0.028447391 0.008943825 -0.011467005 97 78 76
-0.02926916 0.008943825 -0.0130558815 87 77 71
-0.027462104 0.008969874 -0.016092297 87 77 79
-0.028286235 0.008969874 -0.017685741 107 82 87
-0.029110398 0.008969874 -0.019279245 107 88 89
-0.02993453 0.008969874 -0.020872688 122 95 92
0.0134395035 0.00721758 0.049929574 137 106 106
0.009881266 0.00719674 0.049580112 137 108 112
0.003600874 0.00715506 0.05049774 138 111 118
-8.5359E-4 0.007127273 0.050592218 140 113 120
-0.0016721516 0.007127273 0.049009543 140 116 121
-0.0052104588 0.0071064327 0.048698615 140 117 125
-0.008743963 0.0070855934 0.04839698 140 118 125
-0.012272698 0.007064753 0.048104562 141 119 128
-0.01308408 0.007064753 0.046535768 140 120 127
-0.016605632 0.0070439135 0.04625723 140 121 126
-0.017414624 0.0070439135 0.044693068 142 122 125
-0.018223597 0.0070439135 0.043128934 145 120 126
-0.021735573 0.0070230733 0.042868912 142 119 127
-0.022542167 0.0070230733 0.04130937 140 119 125
-0.023348764 0.0070230733 0.039749835 142 120 122
-0.024155358 0.0070230733 0.0381903 144 120 125
-0.024961937 0.0070230733 0.03663079 146 121 127
-0.02845956 0.007002233 0.036398537 148 121 126
-0.029263763 0.007002233 0.034843624 144 121 124
-0.030067965 0.007002233 0.033288714 140 119 121
-0.032661393 0.00698834 0.032627914 137 117 120
-0.033463985 0.00698834 0.031076122 135 112 118
-0.03426659 0.00698834 0.029524297 134 107 118
-0.035069194 0.00698834 0.027972473 134 106 115
-0.034088958 0.007002233 0.025514198 131 105 111
-0.036674406 0.00698834 0.024868824 129 105 109
-0.035697345 0.007002233 0.02240441 131 105 107
-0.036501545 0.007002233 0.020849498 134 104 104
-0.037305746 0.007002233 0.01929459 129 103 103
-0.035447627 0.0070230733 0.016356898 125 101 100
-0.03359433 0.0070439135 0.013409891 123 99 99
-0.034403306 0.0070439135 0.011845756 121 95 97
-0.03521231 0.0070439135 0.010281562 120 92 96
-0.03602128 0.0070439135 0.008717426 119 91 93
-0.036830254 0.0070439135 0.0071532917 117 90 91
-0.034991313 0.007064753 0.0041785184 116 88 89
-0.03580268 0.007064753 0.0026097556 112 86 87
-0.03661408 0.007064753 0.0010409337 108 84 88
-0.034784682 0.0070855934 -0.0019522905 105 82 86
-0.032960076 0.0071064327 -0.004954771 102 81 90
-0.031140285 0.007127273 -0.007966566 99 80 86
-0.028447391 0.00715506 -0.011467005 96 78 85
-0.02926916 0.00715506 -0.0130558815 94 77 75
-0.027462104 0.0071758996 -0.016092297 92 79 84
-0.028286235 0.0071758996 -0.017685741 99 82 88
-0.02648639 0.00719674 -0.020736102 106 90 92
-0.027312916 0.00719674 -0.022334171 113 99 93
0.010707791 0.005397555 0.051178183 137 109 106
0.009881266 0.005397555 0.049580112 137 112 112
0.003600874 0.0053662946 0.05049774 142 112 118
-8.5359E-4 0.005345455 0.050592218 142 113 120
-0.0016721516 0.005345455 0.049009543 141 115 122
-0.0052104588 0.005329825 0.048698615 141 118 125
-0.008743963 0.0053141946 0.04839698 143 119 128
-0.009557739 0.0053141946 0.046823554 143 120 128
-0.01308408 0.005298565 0.046535768 141 121 128
-0.016605632 0.0052829348 0.04625723 141 122 126
-0.017414624 0.0052829348 0.044693068 146 121 124
-0.018223597 0.0052829348 0.043128934 146 120 126
-0.019032585 0.0052829348 0.041564766 141 118 129
-0.022542167 0.005267305 0.04130937 141 117 125
-0.023348764 0.005267305 0.039749835 144 118 121
-0.024155358 0.005267305 0.0381903 144 119 125
-0.024961937 0.005267305 0.03663079 145 120 129
-0.025768533 0.005267305 0.035071254 145 122 126
-0.029263763 0.005251675 0.034843624 140 121 124
-0.030067965 0.005251675 0.033288714 140 120 121
-0.030872166 0.005251675 0.031733807 137 115 119
-0.031676352 0.005251675 0.030178927 137 111 118
-0.03426659 0.005241255 0.029524297 134 107 118
-0.033284757 0.005251675 0.027069107 134 103 115
-0.034088958 0.005251675 0.025514198 129 103 112
-0.03489316 0.005251675 0.02395929 129 104 109
-0.035697345 0.005251675 0.02240441 130 103 107
-0.036501545 0.005251675 0.020849498 130 103 104
-0.037305746 0.005251675 0.01929459 125 101 101
-0.038109936 0.005251675 0.01773971 125 100 100
-0.03891415 0.005251675 0.016184771 121 96 99
-0.034403306 0.0052829348 0.011845756 121 92 97
-0.03521231 0.0052829348 0.010281562 118 92 95
-0.03602128 0.0052829348 0.008717426 118 93 93
